ncols        624
nrows        32
xllcorner    -122.541666667
yllcorner    39.0416666668
cellsize     0.016666666667
285 301 372 317 308 226 232 209 178 157 144 130 122 105 75 60 52 48 45 44 42 40 40 40 39 36 34 33 32 31 30 30 32 31 32 32 32 31 31 31 32 33 34 34 34 36 37 39 41 43 45 45 49 55 69 94 112 184 219 255 325 259 329 285 254 254 357 409 270 368 466 496 589 632 584 599 700 844 914 955 908 816 1020 1106 1095 1125 1133 1175 1081 1162 1132 1118 1249 1362 1441 1438 1437 1527 1557 1135 1238 1219 1078 1056 1325 1325 1328 1195 1260 1238 1299 1325 1330 1425 1401 1432 1509 1597 1807 1917 2055 2226 2261 2314 2320 2231 2122 1781 1641 1617 1580 1603 1662 1772 1911 1951 1961 2055 2053 2018 2185 2193 2003 1940 2067 2166 2296 2273 1971 1827 1779 1855 1932 1997 2028 2144 2115 2011 1954 1838 1743 1622 1517 1490 1476 1428 1418 1400 1368 1371 1414 1468 1542 1602 1642 1631 1615 1521 1413 1349 1317 1314 1320 1350 1399 1517 1576 1594 1597 1628 1744 1630 1637 1558 1472 1401 1341 1313 1349 1383 1363 1357 1344 1329 1326 1315 1274 1242 1240 1233 1225 1221 1220 1223 1224 1224 1223 1223 1222 1220 1218 1215 1210 1210 1210 1209 1207 1203 1198 1197 1197 1196 1195 1193 1192 1191 1190 1189 1188 1186 1184 1185 1187 1190 1189 1190 1195 1198 1201 1221 1363 1632 1818 1927 1946 1937 2062 2262 2143 1882 1451 1257 1159 1119 1116 1121 1138 1160 1203 1255 1328 1428 1664 1909 2099 2301 2409 2438 2353 2269 2286 2039 1907 1747 1646 1591 1574 1569 1566 1564 1564 1564 1568 1576 1592 1619 1658 1695 1724 1785 1880 1890 1864 1980 2007 1980 1961 1961 1959 1970 1965 1956 1956 1989 2014 1976 1940 1912 1842 1834 1858 1881 1810 1738 1755 1786 1831 1943 2179 2345 2375 2187 2206 2167 2099 2095 2059 2027 2075 2040 1983 1981 2044 2087 2284 2500 2643 2666 2642 2566 2303 2220 2170 2012 1974 1955 1955 1910 1905 1905 1902 1900 1889 1882 1877 1875 1874 1877 1874 1867 1863 1861 1859 1856 1857 1896 1932 1938 1903 1855 1869 1899 1912 1917 1941 1947 1909 1935 1901 1845 1827 1827 1836 1864 1879 1882 1911 1972 2061 2152 2264 2391 2624 2682 2371 1963 1803 1786 1786 1786 1788 1789 1792 1797 1800 1807 1816 1829 1856 1907 2007 2164 2009 1940 1916 1908 1905 1904 1900 1898 1904 1931 1972 1992 2051 2066 2128 2202 2174 2117 2068 2038 2047 2005 1956 1930 1922 1921 1922 1921 1925 1934 1975 2184 2496 2267 2055 1914 1859 1838 1827 1823 1824 1828 1837 1851 1873 1920 2005 2139 2353 2577 2734 2781 2539 2335 2293 2262 2162 1916 1806 1769 1749 1740 1739 1738 1737 1737 1738 1744 1765 1796 1831 1867 1899 1946 2039 2156 2133 2101 2088 2051 2015 1983 1960 1943 1974 2075 1943 1838 1781 1721 1660 1600 1556 1535 1510 1491 1476 1462 1468 1495 1531 1582 1650 1763 1970 1987 1832 1747 1691 1650 1610 1584 1570 1566 1568 1566 1560 1544 1530 1530 1438 1371 1358 1353 1353 1372 1478 1595 1752 1786 1793 1683 1577 1550 1540 1535 1529 1530 1550 1571 1604 1641 1668 1702 1732 1777 1825 1910 1885 1848 1921 1954 1678 1500 1456 1441 1431 1422 1421 1417 1427 1449 1461 1445 1403 1392 1392 1391 1396 1396 1396 1399 1403 1406 1410 1418 1439 1443 1443 1445 1447 1452 1454 1461 1463 1461 1461 1461 1462 1468 1477 1489 1512 1564 1664 1801 1598 1519 1493 1560 1645 1525
286 305 380 304 284 201 171 175 151 143 129 110 95 93 78 59 50 47 45 43 41 39 38 39 37 35 33 31 30 28 28 29 30 30 31 31 32 31 30 30 30 31 32 32 33 34 36 37 38 39 40 40 42 45 54 67 89 137 233 235 163 177 245 283 265 255 299 280 292 331 347 398 466 386 381 452 580 744 693 712 825 1023 1136 1162 1153 1068 1053 1109 910 1030 1058 1182 1277 1335 1361 1320 1270 1156 1185 957 1055 1100 1159 1166 1214 1077 1202 1390 1631 1573 1652 1823 1722 1695 1748 1891 1947 1760 1815 2010 1973 2048 2178 2297 2373 2331 2198 2128 1899 1772 1850 1801 1721 1783 1902 1971 2037 2009 2056 2076 2266 2293 2138 1948 2006 2075 2200 2241 1916 1851 1871 1775 1872 1851 1843 1831 1791 1707 1678 1631 1597 1515 1449 1424 1391 1368 1357 1349 1345 1344 1364 1523 1693 1694 1582 1535 1447 1422 1333 1332 1380 1433 1373 1360 1379 1404 1474 1555 1622 1743 1893 1854 1807 1606 1510 1443 1388 1346 1345 1450 1494 1476 1440 1416 1383 1347 1309 1270 1248 1233 1224 1222 1223 1224 1226 1226 1224 1223 1223 1220 1219 1217 1214 1209 1204 1203 1201 1203 1202 1200 1198 1196 1196 1194 1193 1193 1191 1189 1188 1188 1186 1188 1190 1191 1194 1200 1213 1224 1260 1327 1574 1796 2060 2230 2310 2235 2322 2251 1950 1724 1430 1277 1182 1142 1130 1137 1165 1192 1238 1306 1376 1466 1625 1947 2178 2382 2620 2765 2626 2449 2118 1920 1784 1668 1621 1591 1578 1575 1571 1570 1570 1577 1590 1609 1641 1679 1731 1788 1849 2008 1939 1916 1884 1950 1948 1933 1928 1935 2001 2013 2014 1999 1978 1995 1979 1965 1898 1836 1801 1806 1849 1887 1847 1744 1744 1768 1805 1911 2127 2359 2417 2210 2087 2069 2059 2052 2049 2048 2107 2014 1958 2063 2151 2130 2298 2612 2599 2389 2518 2268 2139 2082 2046 1954 1936 1923 1913 1906 1902 1898 1892 1886 1882 1880 1882 1886 1890 1887 1882 1873 1863 1860 1859 1856 1853 1852 1858 1858 1853 1867 1909 1957 2029 2079 2137 2121 1994 1984 1939 1912 1856 1850 1868 1902 1916 1915 1935 2000 2092 2190 2283 2417 2569 2288 2203 1937 1811 1789 1787 1788 1789 1790 1792 1795 1798 1803 1810 1825 1860 1907 1976 2069 2009 1954 1933 1927 1923 1923 1915 1909 1918 1944 1991 2031 2056 2119 2120 2197 2221 2249 2170 2132 2084 2122 2018 1955 1936 1933 1932 1931 1939 1972 2014 2229 2542 2228 2013 1892 1838 1826 1825 1826 1830 1836 1845 1857 1882 1931 2001 2159 2395 2585 2535 2620 2627 2462 2661 2584 2279 1963 1794 1759 1739 1734 1732 1732 1731 1731 1731 1734 1744 1777 1852 1928 1951 1986 2052 2094 2110 2152 2135 2089 2046 2011 1974 1904 1917 2076 1896 1788 1736 1687 1633 1577 1531 1504 1487 1472 1463 1463 1483 1520 1555 1597 1653 1732 1870 1946 1870 1749 1689 1638 1595 1560 1533 1519 1509 1499 1480 1466 1455 1447 1419 1358 1349 1348 1352 1372 1484 1609 1660 1865 1877 1753 1640 1601 1581 1558 1547 1537 1555 1577 1604 1633 1666 1697 1727 1768 1819 1910 1904 1914 1998 1915 1690 1533 1456 1432 1423 1411 1411 1408 1408 1411 1419 1403 1394 1393 1392 1392 1396 1396 1398 1400 1404 1406 1412 1418 1437 1447 1446 1448 1451 1453 1456 1458 1460 1459 1460 1461 1461 1465 1464 1461 1469 1486 1511 1549 1470 1561 1720 1763 1706 1568
278 312 402 296 230 220 221 210 178 121 119 101 89 77 69 56 51 47 44 42 41 38 37 35 34 34 31 30 29 27 27 29 30 30 30 29 30 30 29 28 29 29 30 31 31 33 34 34 35 36 37 38 41 44 62 84 89 77 95 93 114 117 142 215 322 272 363 436 489 291 293 277 393 583 759 857 672 678 831 919 926 1015 1056 1088 1039 944 832 878 875 939 1083 1107 1122 1166 1114 1079 1027 961 1096 974 1241 1432 1496 1573 1435 1313 1292 1616 1887 1759 1841 1982 1936 1899 1955 2055 1944 1866 1850 1953 2150 2099 2086 2180 2212 2308 2316 2210 2016 1917 2036 1989 1924 1849 1875 1909 1941 1997 2048 2087 2170 2255 2109 1915 1919 1995 2058 2140 1976 2116 1842 1670 1587 1603 1577 1597 1578 1559 1564 1523 1495 1455 1409 1384 1367 1358 1351 1345 1341 1340 1377 1557 1659 1617 1500 1398 1349 1453 1483 1639 1699 1653 1459 1406 1417 1444 1472 1660 1749 1747 1810 1810 1735 1620 1551 1483 1443 1390 1373 1423 1525 1593 1568 1506 1446 1412 1373 1317 1279 1259 1237 1227 1234 1233 1227 1228 1227 1226 1225 1225 1226 1220 1217 1215 1210 1205 1204 1203 1204 1203 1198 1196 1196 1195 1194 1193 1192 1191 1190 1191 1189 1191 1193 1195 1209 1229 1251 1277 1332 1462 1623 1801 2019 2303 2333 2178 2008 1986 1919 1662 1422 1295 1217 1168 1143 1163 1199 1235 1275 1332 1417 1519 1631 1848 2152 2451 2713 2809 2530 2299 2118 1887 1705 1641 1611 1593 1583 1583 1582 1580 1589 1615 1643 1663 1717 1794 1943 2026 2000 2046 1947 1937 1908 1916 1908 1907 1923 1952 2007 2074 2123 2064 2019 1932 1934 1896 1839 1802 1779 1776 1790 1793 1766 1736 1753 1780 1821 1895 2011 2164 2238 2154 2048 2015 2036 2049 2097 2126 2118 1966 1953 2110 2188 2261 2342 2448 2429 2197 2218 2095 2016 1969 1950 1928 1916 1909 1905 1899 1894 1891 1888 1888 1888 1892 1896 1903 1894 1890 1886 1872 1863 1859 1856 1853 1851 1851 1850 1853 1866 1890 1926 1984 2088 2220 2315 2264 2082 2149 2008 1959 1881 1879 1902 1941 1952 1966 2003 2005 2087 2192 2294 2387 2378 2386 2295 1889 1806 1790 1788 1788 1790 1792 1795 1799 1802 1806 1815 1836 1867 1904 1971 2025 1986 1961 1962 1953 1949 1944 1932 1926 1934 1955 2004 2020 2088 2185 2167 2187 2300 2342 2342 2232 2137 2171 2095 1996 1959 1952 1946 1947 1997 2065 2071 2211 2503 2214 1981 1877 1831 1827 1828 1832 1839 1847 1858 1869 1885 1953 2069 2144 2266 2316 2289 2428 2633 2693 2873 2569 2259 1950 1790 1743 1729 1723 1722 1721 1721 1720 1720 1722 1727 1772 1949 2128 2072 2057 2067 2148 2155 2152 2131 2102 2072 2149 1951 1881 1860 1856 1781 1726 1688 1650 1608 1555 1516 1492 1478 1467 1461 1467 1501 1528 1558 1629 1661 1712 1817 1933 1886 1785 1683 1627 1585 1546 1513 1487 1467 1448 1429 1412 1400 1388 1368 1350 1347 1346 1352 1380 1428 1493 1656 1894 1896 1798 1706 1649 1626 1599 1575 1556 1550 1575 1602 1628 1661 1698 1763 1805 1789 1798 1807 1837 1911 1921 1804 1541 1459 1434 1421 1410 1404 1403 1403 1401 1398 1396 1393 1391 1389 1394 1395 1396 1398 1402 1406 1411 1420 1425 1437 1448 1448 1448 1452 1455 1457 1457 1458 1459 1461 1462 1461 1451 1438 1443 1444 1447 1447 1476 1614 1772 1922 1848 1706 1616
289 285 405 366 267 237 270 275 186 155 141 111 93 79 62 56 51 46 43 40 40 37 35 34 32 32 30 28 27 26 27 28 30 29 28 28 29 28 28 27 28 28 29 29 30 31 31 32 33 34 35 38 45 50 66 66 62 68 63 69 106 138 162 232 301 326 436 451 495 521 466 463 539 721 908 867 850 839 838 938 1023 994 1042 1060 824 893 1006 819 852 863 832 905 833 806 901 978 1140 1301 1340 1189 1516 1553 1662 1706 1706 1618 1461 1658 1815 1840 1842 1717 1782 1846 1850 1849 1820 1817 1833 1909 2075 2161 2154 2154 2221 2288 2314 2284 2205 2104 2121 2118 2054 1988 1944 1917 2020 1996 1999 2050 2076 2005 2044 1910 1850 1896 1933 1968 2032 2198 1816 1606 1507 1512 1488 1501 1473 1480 1490 1476 1447 1409 1388 1382 1362 1353 1347 1344 1341 1342 1414 1442 1461 1425 1367 1350 1451 1596 1752 1884 1882 1633 1506 1475 1510 1555 1528 1636 1827 1926 1989 1969 1901 1739 1621 1568 1548 1456 1398 1416 1487 1548 1571 1529 1483 1414 1368 1352 1318 1287 1251 1244 1246 1246 1233 1230 1229 1228 1224 1222 1227 1220 1217 1213 1210 1208 1207 1206 1207 1203 1201 1197 1197 1196 1195 1195 1194 1193 1192 1192 1191 1192 1192 1195 1247 1317 1371 1386 1390 1509 1714 1947 2038 2242 2148 2316 2078 1822 1692 1550 1402 1301 1216 1169 1158 1187 1235 1290 1337 1390 1475 1615 1757 1848 2159 2529 2638 2656 2404 2185 2018 1793 1666 1622 1602 1591 1593 1601 1602 1604 1624 1669 1719 1762 1887 2041 2198 2333 2213 2036 1954 1919 1900 1891 1891 1902 1928 1964 2002 2099 2186 2108 1993 1904 1873 1844 1814 1790 1772 1759 1757 1748 1738 1746 1766 1793 1829 1890 2013 2144 2150 2114 2027 1989 1978 2080 2199 2193 2059 1940 1920 1988 2080 2092 2170 2306 2173 2089 2044 1992 1952 1931 1925 1916 1908 1903 1900 1897 1897 1895 1899 1898 1898 1904 1911 1911 1909 1906 1891 1874 1865 1860 1857 1854 1852 1855 1857 1872 1892 1914 1942 1993 2093 2200 2332 2403 2201 2229 2155 2058 1974 1927 1968 2018 1993 2100 2196 2148 2078 2135 2198 2333 2233 2406 2140 1828 1792 1791 1791 1791 1793 1798 1802 1806 1809 1814 1826 1844 1876 1919 1969 2043 2005 1997 2008 2004 1971 1971 1975 1960 1962 1987 2065 2049 2100 2182 2240 2212 2275 2332 2377 2364 2178 2185 2152 2024 1988 1973 1968 1975 2008 2100 2175 2250 2401 2276 1992 1875 1831 1830 1833 1839 1847 1857 1871 1886 1901 1929 2050 2252 2280 2156 2205 2341 2552 2908 3006 2738 2311 1950 1796 1743 1725 1716 1715 1714 1714 1713 1714 1716 1741 1866 2083 2348 2354 2279 2260 2307 2239 2174 2156 2084 2069 2111 1933 1861 1828 1814 1753 1718 1673 1634 1595 1557 1523 1498 1480 1468 1461 1476 1590 1575 1588 1641 1732 1724 1763 1879 1878 1767 1698 1637 1593 1546 1504 1470 1446 1425 1405 1385 1371 1363 1358 1352 1347 1346 1349 1369 1411 1480 1611 1846 2033 1872 1765 1708 1665 1626 1595 1572 1557 1572 1593 1616 1650 1705 1799 1874 1811 1746 1736 1770 1817 1856 1778 1541 1474 1450 1431 1414 1403 1402 1401 1399 1397 1394 1392 1391 1392 1394 1394 1396 1397 1400 1405 1412 1419 1428 1436 1450 1447 1448 1452 1454 1455 1457 1458 1459 1460 1461 1454 1444 1469 1474 1476 1481 1491 1522 1707 1885 1822 1738 1664 1619
288 280 349 400 318 272 318 254 181 158 140 145 141 115 70 54 50 45 41 37 35 33 33 33 31 30 29 27 26 25 26 28 28 28 27 27 26 26 26 27 26 27 28 28 28 29 30 31 32 32 33 37 41 46 51 57 53 51 48 66 96 127 135 201 269 291 394 443 491 569 527 641 775 839 892 766 814 805 788 937 946 931 926 938 716 947 1020 1005 1009 1029 958 929 1024 1035 1156 1252 1356 1428 1474 1403 1536 1588 1686 1610 1677 1717 1656 1697 1812 1765 1595 1645 1851 2073 2100 2066 2029 2057 1989 1849 1889 1988 2028 2076 2084 2157 2138 2125 2241 2253 2193 2071 2074 2049 2050 1971 1936 1936 1940 2048 2094 2090 2097 1980 1847 1835 1841 1873 2026 2236 2022 1722 1536 1582 1601 1570 1551 1545 1490 1465 1441 1449 1425 1390 1359 1347 1343 1341 1338 1364 1581 1603 1489 1406 1408 1432 1562 1733 1850 2010 1904 1720 1741 1629 1707 1605 1550 1612 1723 1857 1980 2107 2046 1883 1813 1725 1648 1556 1442 1412 1442 1439 1479 1482 1456 1410 1395 1367 1341 1285 1256 1249 1243 1244 1240 1232 1230 1228 1225 1224 1223 1219 1216 1213 1211 1211 1210 1211 1206 1204 1202 1199 1198 1197 1196 1196 1195 1195 1195 1194 1194 1193 1197 1219 1300 1404 1415 1441 1451 1542 1655 1837 1992 2137 2053 2107 2007 1828 1685 1522 1387 1278 1202 1166 1178 1220 1273 1383 1426 1537 1596 1718 1882 2009 2191 2315 2404 2468 2487 2153 1907 1760 1662 1610 1598 1598 1610 1627 1639 1651 1690 1750 1817 1889 2056 2207 2379 2362 2118 1997 1941 1906 1886 1880 1887 1903 1934 1989 2096 2067 2064 2060 2017 1901 1852 1819 1798 1777 1762 1746 1740 1739 1739 1754 1776 1801 1842 1923 2073 2277 2231 2132 2027 2019 2014 2015 2075 2102 2012 1892 1883 1930 1962 1989 2123 2362 2296 2081 1995 1958 1932 1918 1914 1909 1906 1903 1903 1907 1906 1906 1906 1913 1919 1923 1933 1937 1953 1958 1914 1896 1879 1869 1863 1859 1858 1858 1868 1885 1910 1934 1958 2021 2057 2182 2381 2445 2261 2273 2244 2194 2092 1994 2058 2151 2089 2137 2379 2284 2206 2178 2241 2297 2126 2027 1913 1822 1796 1794 1794 1795 1799 1806 1816 1816 1819 1826 1840 1859 1879 1962 1983 2041 2091 2034 2041 2022 1998 2040 2052 2022 2010 2014 2071 2089 2085 2168 2215 2201 2198 2268 2269 2311 2201 2156 2197 2070 2040 2018 2026 2049 2100 2223 2273 2415 2440 2346 2037 1882 1834 1833 1839 1846 1856 1866 1882 1899 1917 1935 2000 2231 2162 2095 2178 2333 2481 2838 3009 2615 2319 2018 1834 1765 1725 1711 1710 1710 1710 1710 1710 1720 1777 1935 2208 2528 2629 2690 2564 2444 2335 2223 2213 2196 2175 2033 1914 1870 1829 1771 1733 1695 1661 1626 1591 1551 1529 1503 1485 1469 1468 1518 1685 1627 1627 1667 1773 1799 1798 1805 1854 1787 1714 1658 1592 1550 1508 1468 1435 1410 1393 1375 1366 1368 1365 1360 1347 1346 1346 1357 1390 1459 1643 1926 2127 1925 1807 1742 1691 1648 1611 1582 1562 1563 1577 1598 1629 1682 1750 1809 1876 1764 1703 1679 1697 1665 1619 1531 1497 1468 1441 1420 1407 1402 1400 1398 1395 1393 1393 1393 1393 1394 1395 1395 1396 1398 1400 1406 1414 1423 1430 1447 1447 1447 1449 1453 1456 1457 1458 1459 1457 1445 1443 1445 1467 1477 1487 1493 1501 1534 1662 1779 1866 1844 1686 1646
306 300 356 434 353 288 370 272 180 134 152 128 96 107 79 51 48 45 40 37 33 31 31 30 29 29 28 27 25 25 26 27 29 27 26 26 25 25 24 24 25 26 26 26 27 27 29 30 31 31 33 36 41 44 51 46 43 41 47 74 94 113 117 157 229 269 337 486 568 537 631 726 735 748 853 779 750 753 762 853 965 841 757 712 876 910 944 949 898 922 960 1105 1266 1224 1282 1286 1323 1334 1386 1373 1426 1506 1481 1420 1553 1611 1536 1590 1673 1402 1549 1665 1687 1878 1965 1957 2029 2127 2095 1948 1895 2048 2094 2213 2180 2298 2241 2085 2133 2061 2023 2083 2110 2083 2033 1999 1983 1982 1913 1963 1979 1955 1930 1861 1829 1816 1838 1922 2100 2389 2197 1888 1649 1718 1942 1898 1855 1809 1728 1700 1571 1551 1472 1403 1372 1354 1348 1343 1358 1387 1590 1617 1537 1578 1523 1443 1560 1733 1815 1803 1850 1829 1881 1880 1704 1713 1713 1723 1728 1797 1899 1956 2018 2056 2003 1893 1782 1631 1478 1382 1385 1394 1431 1453 1429 1392 1369 1363 1304 1269 1253 1238 1246 1240 1236 1235 1227 1228 1224 1222 1221 1219 1216 1215 1213 1212 1211 1220 1207 1205 1203 1201 1200 1198 1197 1197 1196 1196 1195 1196 1198 1195 1212 1258 1358 1459 1455 1472 1557 1640 1686 1804 2058 2096 1982 1921 1917 1736 1621 1479 1356 1253 1197 1185 1259 1342 1392 1539 1564 1595 1760 1893 1921 1968 2098 2199 2172 2269 2236 2181 1890 1719 1643 1611 1643 1670 1672 1679 1689 1721 1799 1897 2061 2181 2189 2356 2344 2204 2027 1956 1916 1890 1876 1874 1878 1903 1938 1994 2048 2092 2039 1967 1963 1875 1837 1809 1788 1773 1757 1742 1743 1744 1743 1756 1781 1813 1866 1994 2115 2246 2297 2167 2076 2119 2214 2161 1976 1938 1952 1868 1847 1908 1935 1994 2093 2188 2243 2154 1970 1939 1924 1915 1912 1910 1908 1911 1916 1917 1918 1918 1925 1957 1957 1956 1966 1974 2018 2021 1950 1925 1903 1887 1874 1866 1864 1864 1869 1884 1912 1940 1990 2036 2124 2243 2353 2242 2202 2223 2283 2324 2184 2144 2241 2338 2180 2116 2176 2311 2330 2238 2231 2122 2010 1927 1866 1831 1798 1797 1797 1800 1806 1815 1824 1828 1831 1842 1857 1876 1895 1941 1990 2015 2148 2090 2053 2027 2031 2079 2142 2093 2081 2049 2087 2140 2100 2159 2131 2193 2185 2183 2216 2238 2205 2110 2115 2123 2114 2171 2206 2287 2194 2363 2315 2248 2505 2523 2097 1917 1843 1836 1840 1853 1859 1871 1886 1904 1923 1942 1974 2073 2031 2084 2173 2340 2571 2945 2795 2518 2315 2058 1852 1765 1716 1708 1707 1707 1707 1707 1707 1726 1826 1973 2185 2465 2674 2762 2531 2385 2304 2212 2273 2171 2061 1985 1907 1848 1816 1759 1715 1703 1656 1606 1571 1535 1507 1486 1472 1464 1466 1558 1621 1611 1646 1683 1762 1807 1856 1854 1816 1797 1749 1676 1608 1562 1518 1472 1433 1401 1381 1372 1375 1422 1409 1352 1346 1345 1346 1350 1371 1432 1614 1969 2190 2018 1869 1778 1715 1664 1627 1595 1570 1553 1557 1577 1605 1646 1685 1773 1845 1799 1729 1661 1628 1606 1572 1536 1501 1469 1443 1424 1413 1405 1399 1397 1394 1393 1393 1393 1394 1395 1395 1396 1397 1398 1399 1401 1407 1415 1419 1440 1445 1447 1449 1453 1457 1459 1460 1460 1442 1449 1464 1464 1468 1476 1485 1494 1512 1563 1806 1949 2069 2041 1813 1728
359 305 327 456 409 302 368 270 171 137 126 116 119 86 67 50 46 43 40 36 33 30 29 28 28 27 26 26 24 24 25 26 27 26 25 25 24 24 23 24 24 24 25 25 26 27 28 29 29 30 31 36 39 38 41 40 41 50 56 70 76 99 134 173 217 241 278 459 538 464 560 590 594 670 666 698 731 806 783 831 969 888 693 705 788 794 797 836 873 862 998 1130 1161 1124 1114 1162 1233 1317 1362 1416 1370 1349 1335 1429 1420 1338 1451 1373 1385 1667 1803 1853 1820 1780 1912 1903 1889 1961 2025 2032 1923 2043 2129 2300 2286 2242 2125 2109 2188 2063 2327 2385 2312 2213 2134 2098 2109 2082 1943 1899 1892 1849 1833 1828 1825 1827 1790 1918 2107 2338 2276 1944 1628 1931 2242 2266 2220 1958 2005 1950 1784 1643 1539 1448 1391 1362 1367 1394 1367 1454 1697 1585 1657 1681 1595 1618 1540 1583 1654 1677 1726 1853 1839 1951 1747 1862 1885 1785 1702 1695 1720 1719 1804 1828 1816 1821 1688 1543 1479 1404 1355 1351 1373 1403 1396 1380 1347 1308 1273 1253 1246 1260 1259 1253 1232 1225 1223 1222 1223 1221 1220 1218 1216 1215 1213 1212 1211 1208 1206 1205 1203 1202 1201 1199 1198 1197 1197 1197 1197 1199 1202 1200 1217 1286 1399 1571 1562 1562 1570 1664 1733 1906 2054 1974 1929 1814 1876 1722 1545 1453 1337 1265 1214 1206 1299 1407 1535 1689 1676 1763 1784 1904 1889 1906 2050 2125 2050 2075 2085 2012 1830 1706 1634 1647 1845 1880 1851 1780 1780 1798 1885 2025 2293 2488 2332 2250 2208 2067 1980 1932 1902 1882 1871 1869 1873 1885 1938 2094 2123 2091 2085 1994 1911 1860 1833 1806 1784 1767 1750 1745 1748 1748 1747 1758 1781 1827 1917 2099 2273 2400 2342 2203 2168 2272 2296 2208 2116 1952 1868 1835 1821 1859 1982 2111 2162 2104 2080 2069 1958 1930 1918 1916 1914 1912 1915 1923 1928 1931 1935 1941 1959 1992 2000 2012 2025 2029 2031 2029 1980 1954 1931 1909 1890 1880 1876 1874 1867 1872 1893 1918 2014 2158 2160 2267 2356 2257 2212 2223 2265 2360 2350 2248 2502 2420 2247 2216 2275 2396 2417 2319 2190 2016 1942 1897 1840 1817 1802 1799 1802 1860 1847 1836 1840 1839 1844 1855 1873 1894 1913 1938 2003 2020 2139 2153 2090 2061 2072 2105 2213 2196 2149 2130 2143 2232 2192 2116 2038 2109 2136 2090 2139 2175 2196 2126 2143 2187 2270 2276 2414 2332 2306 2349 2263 2188 2368 2572 2171 1970 1872 1865 1857 1847 1862 1870 1883 1900 1916 1941 2072 2284 2050 2109 2232 2360 2708 2898 2667 2749 2508 2110 1844 1747 1712 1706 1705 1704 1705 1704 1705 1723 1806 1955 2187 2542 2776 2760 2611 2413 2301 2211 2135 2109 2105 2068 1929 1877 1828 1731 1696 1678 1669 1576 1549 1527 1503 1480 1467 1462 1482 1537 1564 1583 1644 1689 1740 1862 1899 1980 1893 1818 1759 1683 1614 1562 1518 1466 1425 1398 1392 1416 1386 1423 1386 1347 1345 1345 1346 1348 1368 1440 1587 1937 2273 2084 1949 1808 1739 1688 1648 1615 1584 1557 1547 1562 1588 1613 1644 1712 1753 1747 1701 1642 1610 1587 1561 1530 1500 1471 1446 1429 1419 1409 1400 1397 1394 1393 1393 1394 1395 1396 1396 1397 1398 1399 1399 1400 1403 1408 1413 1434 1445 1446 1451 1453 1456 1459 1461 1439 1438 1463 1465 1467 1468 1483 1502 1519 1544 1662 1849 1954 2108 2056 2035 1890
364 320 325 417 462 326 404 317 175 152 149 132 127 123 78 49 44 41 38 35 32 29 27 27 26 26 25 24 23 23 24 26 26 25 24 23 23 22 22 23 23 22 23 24 25 26 26 27 28 28 30 34 35 37 35 35 49 60 56 58 82 114 138 170 207 234 232 375 420 406 462 485 523 579 608 654 731 737 855 888 811 787 754 633 627 651 642 681 812 803 921 1020 1167 1174 1197 1194 1240 1329 1202 1171 1187 1269 1279 1225 1142 1154 1197 1318 1588 1753 1809 1886 1801 1724 1748 1840 1788 1892 2179 2322 2047 2004 1987 2122 2329 2200 2153 2241 2224 2171 2506 2466 2503 2281 2160 2172 2123 2098 2030 1944 1964 1867 1861 1794 1811 1824 1771 1877 2046 2056 1946 1790 1746 2105 2428 2589 2502 2271 2260 2131 1877 1703 1578 1464 1397 1376 1370 1365 1353 1391 1533 1651 1767 1773 1703 1674 1640 1558 1592 1641 1687 1768 1911 1919 1921 1940 1976 1795 1704 1657 1615 1591 1596 1667 1641 1663 1646 1548 1413 1358 1357 1347 1340 1324 1363 1380 1315 1273 1267 1272 1278 1275 1266 1256 1228 1222 1220 1219 1219 1219 1217 1217 1215 1214 1212 1211 1209 1208 1206 1204 1202 1201 1200 1199 1199 1198 1198 1199 1202 1204 1221 1226 1254 1361 1482 1630 1632 1612 1596 1681 1737 1802 1860 1854 1856 1770 1747 1699 1566 1443 1331 1273 1231 1212 1341 1489 1589 1773 1744 1822 1974 1948 1838 1853 2032 1998 1918 1907 1911 1945 1856 1685 1654 1746 2008 2211 2073 1969 1930 1882 1919 2068 2422 2476 2387 2219 2108 1996 1954 1920 1894 1876 1867 1865 1868 1875 1918 2037 2266 2233 2105 2040 1892 1835 1809 1793 1776 1762 1751 1751 1752 1752 1753 1763 1792 1856 2004 2196 2317 2513 2391 2318 2240 2195 2166 2081 2020 1941 1857 1805 1794 1803 1898 2035 2074 2041 2032 2008 1986 1971 1923 1920 1917 1921 1927 1933 1942 1952 1961 1973 2015 2049 2069 2090 2122 2131 2099 2055 2010 1979 1952 1927 1912 1898 1890 1880 1877 1883 1884 1909 1967 2084 2284 2210 2260 2406 2286 2245 2291 2362 2371 2424 2703 2460 2370 2290 2247 2337 2474 2318 2105 1988 1915 1864 1818 1808 1804 1803 1812 1945 1904 1865 1866 1863 1851 1865 1880 1900 1923 1946 1972 2014 2118 2193 2142 2138 2163 2084 2197 2286 2181 2098 2090 2147 2126 2047 1994 2004 2038 2038 2045 2082 2148 2169 2174 2244 2376 2417 2515 2431 2525 2523 2351 2207 2186 2513 2517 2109 1945 1989 1972 1863 1853 1861 1873 1886 1901 1975 2268 2337 2086 2160 2294 2443 2735 3104 3080 2973 2616 2210 1882 1770 1713 1704 1703 1703 1702 1703 1704 1720 1811 1917 2064 2303 2638 2898 2729 2490 2299 2234 2157 2109 2059 2064 1911 1884 1795 1713 1675 1638 1602 1564 1530 1509 1494 1479 1469 1464 1474 1498 1524 1560 1610 1721 1813 1820 1913 1967 2020 1889 1754 1671 1612 1555 1508 1468 1429 1399 1390 1415 1377 1391 1362 1346 1344 1344 1344 1348 1371 1456 1620 1990 2277 2163 1993 1872 1782 1723 1676 1635 1599 1568 1545 1546 1565 1584 1611 1656 1681 1711 1756 1716 1610 1577 1551 1528 1502 1476 1453 1435 1429 1425 1406 1403 1397 1394 1394 1395 1396 1397 1398 1399 1400 1401 1402 1402 1403 1406 1410 1433 1445 1447 1450 1454 1455 1457 1451 1442 1447 1461 1463 1465 1472 1504 1564 1570 1613 1754 1922 1982 2103 1944 1871 1939
373 350 316 384 474 373 438 353 224 173 127 121 108 100 90 51 42 39 36 34 30 28 26 25 25 25 23 22 22 22 23 24 26 24 23 23 22 22 21 22 21 21 22 23 23 25 26 26 27 28 29 31 33 35 32 33 40 41 47 50 68 91 124 158 164 209 198 291 386 441 423 398 409 504 691 750 654 655 827 851 914 751 707 731 594 596 630 728 672 786 917 980 1036 1072 1046 1044 1093 1049 1025 1057 1015 1054 1122 1129 1146 1318 1378 1471 1622 1743 1864 1651 1689 1896 2065 2054 1919 1866 1942 2131 2169 2196 2153 2102 2323 2346 2319 2342 2352 2420 2605 2449 2262 2253 2270 2122 2049 2015 1990 1949 1925 1977 1888 1793 1762 1751 1748 1793 1938 1939 1686 1747 2105 2378 2549 2664 2574 2487 2453 2260 2050 1863 1653 1516 1445 1411 1382 1364 1361 1362 1463 1702 1824 1846 1760 1685 1656 1590 1636 1700 1730 1815 1974 2009 1999 2011 2038 1919 1744 1673 1577 1502 1483 1496 1507 1467 1470 1456 1437 1352 1299 1312 1311 1330 1322 1315 1278 1271 1284 1284 1318 1335 1303 1268 1249 1223 1218 1217 1217 1217 1216 1216 1215 1212 1212 1210 1208 1206 1205 1203 1202 1201 1200 1199 1199 1200 1227 1239 1227 1240 1285 1261 1307 1440 1568 1575 1575 1554 1624 1649 1752 1737 1713 1800 1729 1679 1608 1580 1534 1417 1344 1296 1252 1225 1313 1458 1690 1855 1772 1895 2004 1908 1804 1794 1992 1999 1847 1788 1794 1808 1793 1704 1691 1849 2071 2351 2223 2235 2171 2020 1976 2148 2394 2496 2334 2127 2044 1977 1933 1905 1885 1870 1861 1859 1862 1873 1910 2026 2183 2214 2042 1948 1869 1822 1794 1779 1768 1760 1755 1756 1758 1761 1765 1772 1802 1907 2113 2384 2526 2490 2505 2546 2366 2160 2072 2042 1950 1886 1829 1788 1774 1775 1842 1976 1983 1950 1956 1959 2051 2021 1928 1922 1923 1952 1956 1945 1956 1976 1998 2022 2072 2141 2158 2207 2286 2417 2221 2119 2042 1997 1964 1939 1922 1913 1908 1887 1886 1889 1887 1911 1967 2068 2264 2327 2317 2339 2242 2256 2334 2475 2586 2698 2573 2421 2404 2274 2185 2186 2329 2401 2195 1985 1896 1849 1814 1805 1805 1807 1825 1982 1948 1908 1934 1878 1861 1874 1892 1910 1929 1951 1980 2026 2102 2160 2124 2180 2242 2119 2168 2238 2144 2106 2050 2022 2003 1977 1963 1963 1973 1989 2039 2051 2101 2147 2172 2227 2307 2375 2480 2391 2530 2563 2362 2208 2108 2182 2466 2262 2083 2232 2281 1946 1858 1859 1862 1870 1906 2070 2363 2172 2140 2212 2336 2514 2840 3212 3010 2784 2536 2264 1949 1782 1711 1701 1699 1700 1700 1701 1702 1711 1773 1876 2036 2297 2670 2868 2759 2591 2438 2320 2231 2186 2127 2012 1961 1825 1759 1710 1668 1631 1596 1562 1527 1502 1487 1475 1469 1466 1468 1479 1501 1533 1590 1698 1807 1783 1812 1865 1969 2001 1770 1661 1597 1542 1494 1459 1418 1389 1372 1368 1361 1363 1355 1347 1344 1343 1345 1349 1375 1457 1663 2045 2396 2271 2057 1910 1820 1758 1701 1650 1608 1574 1547 1537 1548 1567 1592 1619 1640 1683 1730 1754 1624 1586 1547 1522 1496 1471 1459 1455 1462 1488 1414 1401 1397 1395 1395 1396 1398 1399 1399 1401 1402 1404 1405 1405 1405 1406 1411 1434 1446 1450 1452 1453 1453 1442 1439 1455 1457 1457 1461 1465 1483 1533 1611 1668 1733 1791 1904 2069 2164 2039 1834 1756
338 354 342 392 499 438 444 391 273 177 141 127 120 114 89 51 42 37 34 33 29 26 25 24 24 24 22 21 21 21 22 23 25 23 23 22 21 21 20 21 20 20 21 22 22 24 24 25 26 27 29 30 31 33 33 34 35 35 42 42 49 72 103 131 141 140 176 238 370 435 335 315 485 652 693 780 697 565 637 690 887 857 755 656 638 667 643 642 589 707 879 930 905 852 868 904 932 948 1114 1263 1213 1307 1418 1464 1463 1430 1249 1496 1665 1798 1841 1540 1788 1892 1971 2058 2050 2095 2035 2075 2065 2233 2281 2255 2204 2266 2368 2406 2407 2460 2509 2339 2386 2528 2421 2208 2226 2134 2086 2064 1913 1888 1876 1836 1795 1749 1717 1737 1849 1998 1757 1933 2287 2530 2596 2710 2733 2690 2599 2449 2265 1978 1733 1618 1531 1475 1412 1380 1373 1388 1585 1798 1866 1818 1755 1785 1777 1734 1716 1848 1844 1874 1984 1943 1794 1820 1827 1792 1637 1554 1554 1492 1437 1416 1425 1380 1341 1332 1301 1278 1271 1272 1297 1351 1377 1387 1276 1333 1344 1363 1412 1473 1375 1298 1290 1250 1221 1216 1214 1215 1216 1215 1213 1211 1210 1209 1207 1206 1203 1202 1202 1200 1199 1199 1200 1235 1311 1320 1309 1327 1305 1280 1374 1496 1486 1482 1548 1543 1586 1595 1667 1692 1595 1628 1623 1587 1529 1484 1457 1401 1358 1308 1260 1247 1336 1470 1747 1876 1828 1984 2017 1887 1774 1726 1843 1967 1798 1725 1708 1697 1694 1702 1720 1876 2079 2437 2453 2367 2260 2190 2061 2243 2426 2392 2201 2083 2011 1963 1927 1899 1876 1863 1857 1855 1857 1864 1903 2026 2233 2209 2036 1931 1855 1812 1787 1772 1765 1761 1758 1762 1773 1784 1793 1799 1854 2066 2340 2540 2445 2350 2445 2624 2336 2124 2003 1945 1879 1824 1791 1772 1763 1764 1832 1861 1896 1863 1877 1898 2015 1982 1930 1928 1962 2066 2057 1973 1976 2037 2056 2077 2156 2255 2260 2375 2526 2481 2343 2194 2085 2023 1969 1937 1917 1903 1892 1885 1889 1896 1897 1924 1984 2091 2234 2353 2425 2271 2211 2296 2445 2478 2590 2518 2385 2309 2253 2227 2149 2149 2319 2456 2192 1981 1875 1833 1812 1808 1812 1824 1856 1963 2016 1978 1944 1898 1874 1885 1906 1926 1946 1969 2002 2058 2191 2321 2207 2234 2295 2173 2190 2291 2190 2188 2066 2026 1978 1960 1948 1950 1960 1972 2018 2097 2094 2125 2185 2245 2327 2330 2385 2339 2359 2482 2349 2246 2083 2054 2234 2453 2366 2490 2434 2009 1869 1866 1870 1871 1942 2231 2327 2139 2197 2273 2374 2538 2885 3247 3394 3049 2654 2385 2019 1796 1715 1700 1698 1697 1697 1698 1699 1702 1734 1820 1953 2168 2443 2780 2743 2621 2530 2464 2382 2350 2213 2187 2293 1923 1818 1749 1689 1636 1588 1553 1527 1502 1482 1471 1467 1465 1467 1470 1480 1508 1560 1649 1776 1741 1744 1773 1887 1910 1772 1628 1567 1519 1475 1438 1404 1375 1362 1358 1352 1352 1351 1347 1342 1344 1345 1351 1392 1488 1642 1969 2333 2249 2115 1977 1884 1795 1720 1661 1615 1579 1550 1532 1536 1553 1573 1592 1609 1643 1692 1714 1672 1600 1543 1511 1485 1460 1450 1459 1451 1443 1407 1399 1396 1395 1396 1397 1399 1400 1400 1402 1403 1406 1408 1409 1409 1410 1424 1441 1445 1447 1449 1448 1435 1442 1455 1456 1454 1457 1466 1476 1496 1538 1616 1764 1930 2088 2098 2078 2281 2230 1977 1775
344 391 355 399 484 499 429 334 258 174 128 140 139 130 94 59 42 36 33 31 28 25 24 22 22 22 21 20 20 20 21 23 24 22 21 20 20 20 20 21 20 20 21 21 22 22 22 24 25 26 28 29 30 32 33 32 33 34 35 37 44 72 91 117 96 134 191 229 276 358 300 319 499 597 688 653 564 523 605 608 830 924 890 698 648 660 578 547 593 597 697 714 849 946 1036 1134 1197 1175 1216 1317 1371 1403 1461 1481 1313 1238 1228 1431 1633 1754 1763 1576 1821 1926 2102 2118 2116 2144 2248 2277 2135 2226 2184 2074 2022 2099 2180 2208 2277 2354 2401 2346 2217 2125 2054 2009 2046 2170 2022 1894 1832 1794 1800 1800 1792 1769 1705 1754 1933 2039 1801 1838 2218 2330 2465 2678 2892 2661 2429 2244 2143 2024 1784 1689 1604 1526 1453 1411 1398 1460 1676 1859 1917 1872 1801 1833 1867 1886 1757 1892 2061 2030 1966 1780 1671 1576 1570 1528 1473 1438 1478 1466 1484 1391 1351 1328 1306 1292 1281 1275 1272 1269 1295 1318 1326 1325 1301 1360 1403 1390 1434 1517 1447 1432 1427 1327 1243 1218 1214 1213 1214 1213 1210 1209 1208 1206 1205 1203 1201 1200 1199 1198 1198 1201 1247 1265 1248 1287 1305 1333 1265 1258 1321 1401 1390 1475 1536 1584 1611 1549 1532 1558 1531 1515 1522 1515 1480 1463 1410 1365 1334 1295 1256 1280 1391 1522 1753 1802 1887 2018 1901 1820 1746 1680 1762 1969 1783 1686 1652 1630 1674 1695 1736 1869 2078 2404 2508 2634 2434 2323 2238 2299 2234 2202 2165 2066 1992 1949 1913 1888 1869 1857 1854 1853 1854 1857 1884 1997 2157 2124 2005 1884 1834 1800 1780 1771 1767 1765 1764 1775 1798 1823 1839 1849 1917 2216 2536 2512 2322 2248 2313 2450 2237 2046 1941 1853 1807 1772 1760 1756 1753 1767 1800 1781 1806 1828 1841 1904 2013 1959 1934 1943 2011 2118 2069 1997 2033 2103 2127 2133 2246 2320 2370 2514 2763 2742 2475 2323 2132 2039 1975 1939 1916 1903 1901 1894 1889 1901 1909 1930 1969 2021 2096 2178 2285 2194 2205 2300 2363 2374 2504 2439 2352 2239 2166 2098 2139 2064 2145 2177 2182 2008 1900 1815 1810 1815 1828 1849 1878 1934 2005 2131 1988 1921 1889 1897 1914 1932 1958 1985 2016 2067 2163 2286 2262 2256 2344 2204 2204 2308 2183 2230 2084 2009 1965 1951 1944 1943 1946 1951 1979 2136 2194 2149 2224 2285 2347 2258 2312 2249 2262 2370 2356 2148 2035 2001 2055 2205 2343 2584 2310 1976 1872 1862 1874 1897 2072 2330 2212 2170 2218 2302 2412 2554 2765 2908 3264 2988 2680 2411 2046 1826 1736 1700 1697 1695 1695 1695 1697 1699 1714 1784 1899 2124 2468 2733 2712 2606 2508 2443 2446 2417 2393 2531 2277 2048 1882 1792 1709 1643 1586 1536 1504 1485 1475 1470 1466 1464 1466 1468 1472 1488 1521 1601 1704 1691 1690 1725 1819 1846 1751 1606 1541 1496 1458 1424 1396 1373 1360 1353 1349 1352 1352 1347 1342 1346 1346 1354 1398 1501 1689 1953 2262 2443 2406 2181 2133 1931 1757 1693 1626 1582 1553 1531 1527 1537 1553 1567 1584 1605 1639 1663 1641 1661 1565 1504 1472 1448 1429 1423 1417 1411 1405 1399 1395 1396 1397 1398 1400 1402 1402 1404 1406 1408 1412 1416 1421 1417 1428 1426 1427 1430 1429 1429 1439 1452 1454 1455 1454 1458 1473 1493 1518 1564 1657 1909 2217 2373 2333 2507 2542 2299 1986 1780
364 394 371 454 498 508 357 370 197 138 129 127 155 154 110 68 44 35 31 28 27 25 23 21 21 21 20 19 19 20 20 23 24 21 20 19 19 19 19 19 19 20 20 20 21 22 22 23 24 25 27 29 29 31 31 31 31 33 33 34 40 57 91 84 85 117 155 229 246 272 286 373 476 492 575 522 473 479 542 566 649 880 858 671 565 557 543 594 743 778 749 757 859 979 1064 1140 1220 1173 1174 1224 1377 1432 1419 1362 1089 1085 1237 1381 1406 1639 1519 1696 1758 1793 1953 2181 2078 2107 2111 2166 2216 2175 2001 2005 2078 2136 2192 2233 2287 2367 2569 2472 2262 2218 2240 2135 2038 1958 1928 1950 1919 1806 1762 1752 1802 1879 1739 1739 1822 1917 1894 1791 2036 2218 2400 2702 2915 2644 2474 2266 2104 1975 1789 1704 1670 1586 1559 1462 1431 1482 1694 1915 1953 1858 1810 1841 1857 1841 1780 1868 2022 1977 1836 1784 1581 1486 1451 1389 1352 1356 1365 1382 1385 1369 1353 1339 1319 1293 1283 1278 1273 1276 1290 1322 1352 1395 1370 1366 1426 1405 1427 1412 1474 1547 1496 1349 1266 1226 1213 1211 1211 1210 1208 1206 1206 1204 1203 1201 1199 1198 1198 1197 1197 1199 1203 1211 1221 1252 1280 1247 1224 1241 1270 1323 1400 1510 1554 1636 1692 1635 1513 1473 1467 1437 1449 1453 1427 1398 1362 1336 1310 1286 1266 1298 1371 1459 1605 1666 1785 1969 1916 1779 1670 1629 1815 1919 1739 1650 1615 1599 1636 1680 1757 1869 2108 2417 2569 2758 2602 2393 2302 2227 2156 2082 2045 1998 1962 1944 1903 1883 1867 1855 1851 1852 1852 1854 1869 1972 2013 1993 1926 1863 1817 1791 1778 1773 1771 1770 1771 1792 1826 1859 1883 1924 2060 2331 2596 2436 2532 2568 2353 2148 2067 1931 1849 1800 1777 1762 1751 1745 1743 1744 1750 1772 1799 1803 1831 1897 2008 1967 1938 1950 1994 2046 2078 2034 2154 2178 2216 2205 2358 2520 2561 2660 2937 2761 2495 2412 2281 2067 1973 1946 1928 1915 1911 1902 1893 1906 1918 1931 1956 1995 2043 2117 2203 2170 2290 2333 2253 2215 2364 2327 2252 2174 2160 2067 2044 1965 1946 1970 2086 1958 1825 1812 1813 1820 1847 1878 1909 1991 2094 2089 1993 1940 1901 1907 1925 1943 1966 1992 2022 2063 2145 2313 2347 2225 2205 2149 2145 2243 2139 2189 2126 1999 1964 1955 1947 1940 1938 1939 1955 2094 2196 2160 2227 2334 2317 2228 2201 2181 2192 2297 2272 2135 2032 1982 1987 2048 2223 2434 2067 1909 1865 1862 1869 1937 2173 2415 2246 2198 2273 2323 2428 2630 2961 3140 3348 3090 2739 2443 2117 1860 1766 1705 1696 1694 1694 1695 1696 1697 1704 1760 1891 2167 2394 2602 2728 2637 2572 2508 2491 2448 2528 2546 2302 2141 1969 1829 1731 1649 1583 1530 1495 1480 1473 1469 1467 1466 1466 1466 1471 1495 1529 1567 1617 1638 1666 1717 1823 1776 1702 1586 1531 1486 1452 1422 1397 1375 1360 1352 1348 1353 1352 1348 1343 1346 1349 1364 1422 1527 1764 2041 2403 2644 2595 2509 2300 2082 1930 1791 1655 1599 1558 1533 1525 1524 1535 1545 1557 1569 1588 1595 1606 1656 1554 1490 1454 1431 1413 1403 1401 1401 1399 1395 1396 1397 1398 1399 1400 1401 1402 1404 1406 1409 1412 1415 1415 1415 1419 1429 1443 1447 1449 1444 1448 1452 1454 1452 1452 1461 1487 1518 1545 1592 1710 1957 2310 2381 2292 2473 2618 2302 1915 1762
372 370 379 472 531 492 314 330 205 193 157 102 108 149 115 76 48 35 30 28 26 25 24 22 20 20 20 18 19 19 20 23 23 20 19 18 18 18 18 18 18 19 20 20 21 22 22 23 24 26 28 29 30 29 30 29 28 32 31 32 33 46 72 67 85 110 144 206 208 206 249 334 425 413 449 456 486 481 544 546 552 733 794 649 508 624 675 693 754 779 792 849 880 868 911 1047 1063 975 1041 1172 1310 1275 1180 1129 911 1038 1125 1061 1190 1237 1525 1633 1745 1819 1917 1910 1771 1770 1808 1840 1883 1974 1970 2149 2192 2232 2316 2287 2354 2313 2396 2535 2495 2301 2091 2084 2101 2028 1955 1964 1915 1834 1796 1769 1760 1743 1795 1781 1762 1791 1783 2014 2216 2371 2504 2776 2930 2729 2483 2332 2116 1859 1749 1669 1735 1715 1561 1449 1439 1518 1604 1769 1950 1957 1892 1888 1864 1860 1932 2006 1956 1737 1657 1564 1457 1413 1390 1345 1319 1313 1322 1351 1406 1414 1447 1477 1412 1320 1283 1279 1279 1274 1273 1270 1275 1303 1308 1307 1370 1386 1369 1392 1452 1489 1432 1318 1265 1229 1211 1208 1207 1207 1206 1205 1204 1203 1201 1199 1197 1196 1196 1196 1196 1199 1206 1204 1205 1207 1206 1203 1210 1225 1253 1310 1409 1521 1593 1649 1722 1672 1572 1483 1436 1392 1388 1388 1371 1354 1335 1314 1296 1283 1292 1291 1335 1384 1464 1534 1681 1911 1874 1714 1606 1609 1856 1791 1671 1609 1585 1570 1612 1697 1767 1864 2099 2417 2743 2851 2586 2375 2280 2196 2210 2158 2101 2049 1984 1923 1900 1882 1868 1854 1848 1848 1850 1852 1857 1943 2007 1953 1887 1843 1812 1792 1780 1776 1776 1775 1777 1803 1842 1888 1931 2013 2243 2542 2593 2737 2961 2605 2343 2102 1920 1844 1808 1781 1763 1753 1743 1739 1736 1737 1744 1758 1770 1781 1811 1890 2036 1996 1942 1946 1972 2001 2040 2088 2191 2237 2333 2337 2357 2451 2614 2823 2822 2706 2530 2390 2257 2105 2011 1971 1943 1926 1919 1900 1900 1910 1923 1935 1951 1974 2007 2091 2167 2152 2259 2322 2265 2131 2125 2154 2126 2117 2071 2027 1949 1898 1878 1872 1857 1821 1815 1817 1822 1829 1863 1939 1954 2060 2220 2135 2004 1947 1911 1920 1937 1958 1978 1996 2030 2076 2145 2356 2428 2237 2249 2131 2104 2212 2124 2124 2159 2000 1974 1962 1952 1943 1936 1938 1962 2009 2059 2106 2174 2360 2386 2241 2179 2145 2152 2278 2229 2214 2086 2021 1984 1967 2028 2097 1910 1874 1868 1867 1876 1968 2270 2425 2287 2237 2310 2393 2465 2673 2905 3232 3290 2910 2651 2459 2129 1878 1775 1709 1695 1694 1694 1694 1694 1696 1698 1737 1872 2125 2466 2653 2615 2544 2478 2437 2388 2337 2374 2455 2574 2500 2292 1945 1739 1637 1570 1528 1505 1487 1476 1470 1468 1467 1467 1468 1472 1492 1519 1547 1580 1607 1647 1725 1794 1782 1678 1591 1538 1497 1465 1434 1404 1378 1360 1351 1349 1351 1350 1349 1347 1348 1356 1390 1459 1560 1725 1947 2199 2358 2209 2168 2160 2236 2008 1822 1731 1586 1542 1529 1528 1537 1523 1522 1530 1538 1548 1545 1547 1538 1503 1462 1434 1414 1399 1394 1395 1395 1394 1394 1395 1397 1398 1398 1399 1400 1401 1404 1405 1407 1410 1412 1413 1417 1423 1428 1428 1431 1443 1450 1450 1452 1453 1452 1450 1466 1501 1547 1589 1621 1696 1914 2242 2143 2105 2198 2365 2257 1875 1705
359 367 372 483 512 540 333 270 238 237 207 116 92 126 102 67 52 38 31 29 28 27 25 22 20 19 18 17 17 19 22 22 20 18 17 18 17 17 18 18 18 18 19 19 20 21 22 23 25 26 27 28 28 28 28 27 27 28 29 28 30 40 55 59 77 103 138 159 183 202 248 374 385 377 506 489 481 505 562 495 505 701 681 477 573 640 671 725 689 755 860 880 886 828 870 927 957 965 1045 909 957 974 988 889 956 998 1127 1134 1033 1179 1162 1367 1655 1676 1699 1584 1641 1652 1749 1942 1988 2042 2140 2207 2233 2271 2286 2165 2153 2258 2370 2309 2293 2223 2170 2271 2185 2041 1994 1947 1955 1896 1810 1798 1773 1780 1831 1847 1920 1971 2113 2047 2072 2218 2475 2706 2884 3067 2748 2373 2115 1949 1781 1679 1627 1499 1532 1586 1667 1650 1744 1859 1988 2070 1947 1892 1986 1947 1988 1877 1671 1587 1539 1463 1395 1351 1328 1311 1306 1303 1313 1424 1507 1512 1577 1602 1492 1341 1284 1283 1284 1281 1280 1278 1270 1269 1271 1274 1283 1302 1355 1403 1415 1384 1355 1317 1277 1239 1211 1206 1205 1205 1204 1203 1202 1201 1199 1198 1195 1195 1194 1194 1195 1200 1218 1205 1209 1211 1203 1200 1199 1206 1237 1288 1416 1561 1577 1627 1600 1628 1630 1491 1399 1353 1344 1336 1329 1324 1316 1302 1294 1292 1305 1288 1313 1353 1400 1485 1698 1868 1765 1644 1556 1647 1863 1665 1588 1563 1552 1554 1590 1663 1743 1855 2058 2357 2715 2761 2557 2364 2282 2267 2276 2215 2174 2108 2003 1920 1887 1875 1862 1851 1847 1846 1847 1849 1857 1924 2018 1979 1899 1845 1810 1790 1783 1782 1781 1781 1787 1821 1863 1914 1999 2100 2239 2489 2517 2951 2703 2474 2136 1998 1893 1812 1789 1774 1758 1745 1737 1733 1731 1736 1745 1752 1766 1779 1809 1905 2117 2002 1947 1946 1961 1981 2024 2116 2134 2264 2348 2448 2514 2635 2691 2797 2757 2553 2438 2427 2263 2147 2038 1988 1956 1939 1924 1903 1911 1921 1925 1934 1953 1983 2025 2084 2159 2234 2367 2481 2240 2047 2001 1999 2019 2022 2008 1973 1912 1868 1849 1836 1825 1820 1819 1828 1843 1858 1908 2103 2058 2038 2155 2119 2004 1951 1918 1931 1950 1974 1998 2022 2039 2085 2155 2305 2460 2249 2204 2116 2083 2115 2083 2102 2082 2011 1975 1961 1950 1941 1934 1936 1957 1987 2024 2074 2156 2341 2498 2275 2193 2141 2125 2195 2244 2162 2091 2047 2021 1946 1932 1913 1881 1876 1875 1873 1892 2025 2437 2485 2359 2270 2329 2443 2588 2600 2781 2979 3270 3280 2972 2617 2202 1939 1797 1711 1697 1696 1693 1693 1694 1695 1698 1745 1856 2070 2369 2722 2717 2599 2506 2539 2403 2304 2197 2242 2360 2580 2407 1954 1733 1630 1571 1543 1517 1495 1480 1472 1470 1469 1469 1470 1472 1483 1503 1526 1554 1590 1639 1704 1774 1781 1654 1595 1557 1523 1488 1454 1419 1388 1365 1355 1351 1351 1350 1348 1349 1352 1363 1405 1482 1582 1800 1948 2035 2096 2077 2008 2030 2080 1945 1859 1759 1567 1538 1527 1524 1535 1542 1536 1507 1507 1511 1507 1497 1480 1456 1436 1417 1401 1392 1391 1392 1393 1393 1394 1394 1396 1397 1398 1398 1399 1401 1404 1406 1408 1409 1409 1412 1415 1415 1412 1413 1418 1430 1443 1448 1450 1450 1448 1455 1483 1534 1642 1698 1712 1731 1845 1962 2052 2132 2185 2290 2219 1881 1715
382 378 374 460 456 524 352 278 294 191 168 125 108 117 79 64 53 41 36 32 29 26 24 21 19 18 18 16 17 18 21 21 19 18 18 18 17 17 18 17 17 18 19 19 21 21 22 22 23 25 25 26 26 26 27 26 26 25 26 27 31 35 41 54 61 80 99 120 154 189 241 320 386 366 472 572 539 560 620 469 321 371 450 485 597 615 613 650 750 730 729 801 791 754 760 807 869 877 895 1081 1037 1093 1248 1109 1165 1181 1176 1319 1345 1341 1514 1522 1484 1530 1534 1592 1636 1667 1825 2095 2090 2041 2077 2107 2128 2157 2126 2003 2005 2150 2207 2247 2245 2074 2033 2044 2046 1948 1960 1892 1879 1813 1791 1775 1756 1793 1943 1971 2037 2046 2146 2265 2278 2478 2524 2816 2982 2778 2608 2440 2254 2028 1845 1662 1563 1550 1666 1730 1763 1772 1819 2009 2182 2059 1908 1869 1754 1692 1702 1594 1462 1440 1408 1378 1366 1317 1308 1309 1304 1303 1321 1482 1574 1680 1707 1607 1490 1364 1295 1283 1282 1280 1278 1274 1273 1273 1272 1273 1275 1278 1286 1307 1336 1328 1364 1378 1350 1261 1220 1205 1204 1203 1203 1201 1200 1198 1196 1195 1194 1194 1194 1194 1195 1197 1218 1280 1252 1215 1202 1199 1198 1197 1216 1277 1437 1492 1452 1479 1448 1460 1501 1430 1352 1323 1320 1312 1304 1299 1293 1291 1301 1303 1312 1299 1328 1468 1393 1503 1739 1853 1719 1582 1517 1622 1693 1565 1536 1519 1524 1539 1585 1718 1847 1892 1994 2259 2564 2767 2578 2407 2365 2402 2397 2276 2158 2027 1949 1901 1873 1863 1854 1848 1845 1846 1846 1847 1862 1961 2125 2009 1929 1866 1817 1793 1789 1789 1787 1787 1792 1828 1889 1978 2118 2277 2441 2270 2666 2858 2461 2221 2041 1914 1833 1779 1768 1760 1748 1738 1731 1727 1726 1747 1778 1778 1803 1826 1873 2033 2091 1966 1949 1950 1962 1978 2006 2040 2102 2204 2295 2415 2538 2553 2598 2695 2641 2516 2351 2230 2197 2150 2045 1996 1967 1948 1932 1908 1919 1929 1934 1944 1974 2022 2091 2155 2219 2315 2497 2548 2169 2002 1935 1931 1947 1951 1952 1929 1876 1839 1833 1828 1844 1842 1850 1857 1869 1886 1941 2079 2155 2090 2120 2100 1999 1949 1922 1932 1951 1975 2003 2031 2064 2100 2153 2259 2438 2256 2178 2126 2096 2120 2222 2268 2146 2021 1965 1953 1943 1935 1931 1932 1948 1977 2016 2069 2145 2298 2585 2370 2226 2157 2114 2110 2160 2180 2152 2069 2012 1967 1936 1907 1886 1885 1883 1882 1928 2086 2447 2580 2427 2322 2336 2491 2652 2809 2843 3142 3376 3219 2962 2572 2222 1988 1822 1715 1694 1693 1694 1693 1694 1695 1700 1754 1861 2020 2286 2649 2726 2685 2590 2632 2632 2508 2314 2184 2103 2024 2019 1807 1683 1620 1579 1549 1521 1496 1481 1473 1472 1471 1471 1471 1473 1478 1488 1509 1540 1589 1642 1732 1835 1727 1666 1629 1599 1565 1528 1479 1441 1408 1381 1362 1356 1353 1349 1350 1350 1351 1359 1396 1496 1727 1893 1911 1992 2029 1926 1907 1948 1927 1787 1717 1669 1588 1557 1535 1523 1526 1539 1543 1514 1500 1487 1481 1467 1454 1436 1417 1401 1394 1392 1390 1390 1392 1393 1393 1394 1395 1397 1397 1398 1398 1399 1402 1404 1405 1407 1407 1410 1411 1411 1410 1409 1409 1415 1431 1441 1445 1445 1448 1477 1519 1579 1722 1882 1944 1953 1932 2235 2444 2454 2495 2531 2286 1930 1766
403 396 383 398 430 500 369 363 308 191 115 102 127 126 84 63 46 41 37 31 27 24 22 21 19 18 17 16 16 17 21 22 18 18 17 17 16 16 17 17 17 18 19 20 21 21 22 22 23 24 24 25 25 25 26 25 25 25 26 28 31 33 40 45 71 81 105 138 161 206 218 262 316 386 394 595 561 524 544 374 282 523 581 538 589 570 615 705 709 616 748 856 934 934 910 982 1105 1127 1188 1232 1217 1251 1302 1319 1384 1387 1388 1511 1590 1604 1651 1583 1417 1530 1642 1729 1780 1833 1795 1789 1941 1952 1919 1919 1900 1900 1944 2026 2075 2117 2094 2148 2195 2135 1960 1880 1924 1922 1853 1853 1831 1866 1825 1800 1793 1781 1895 2016 2099 2174 2220 2365 2354 2525 2752 2936 2869 2842 2680 2742 2378 1984 1735 1564 1536 1597 1727 1770 1820 1869 1952 2126 2266 1968 1788 1785 1601 1534 1488 1390 1355 1348 1339 1366 1386 1336 1387 1392 1328 1305 1312 1409 1507 1606 1600 1511 1420 1331 1286 1284 1282 1276 1275 1277 1276 1273 1272 1273 1274 1275 1278 1291 1328 1359 1403 1382 1286 1270 1219 1207 1204 1203 1201 1200 1198 1196 1195 1194 1194 1194 1194 1194 1194 1196 1228 1354 1316 1226 1206 1200 1197 1196 1197 1234 1329 1288 1272 1289 1309 1415 1495 1438 1329 1305 1302 1295 1288 1283 1282 1296 1324 1317 1322 1323 1338 1404 1359 1447 1652 1693 1581 1503 1465 1521 1528 1495 1496 1514 1530 1548 1689 1820 1807 1851 1966 2159 2372 2742 2559 2416 2426 2430 2460 2311 2133 2003 1934 1889 1865 1852 1847 1845 1845 1845 1846 1849 1876 1974 2208 2192 1995 1911 1825 1800 1797 1796 1794 1793 1814 1871 1942 2115 2374 2541 2645 2394 2797 3037 2514 2188 1940 1843 1794 1755 1748 1743 1736 1728 1723 1722 1725 1749 1806 1832 1874 1929 1997 2130 2032 1973 1954 1954 1968 1982 2001 2027 2068 2154 2256 2310 2469 2410 2472 2556 2549 2446 2382 2265 2157 2076 2029 1995 1969 1950 1936 1916 1919 1931 1943 1961 1992 2032 2098 2162 2239 2350 2510 2449 2164 1954 1890 1890 1896 1903 1906 1895 1851 1828 1827 1832 1949 1909 1922 1943 1927 1926 1930 1991 2072 2097 2055 2019 1979 1948 1925 1934 1948 1968 1997 2035 2074 2123 2152 2227 2402 2322 2244 2180 2108 2164 2339 2359 2184 2033 1972 1942 1932 1929 1928 1929 1945 1972 2009 2059 2131 2246 2530 2580 2287 2181 2130 2115 2097 2147 2178 2063 2004 1965 1935 1908 1893 1894 1892 1895 1967 2117 2379 2661 2553 2387 2396 2516 2764 3049 3059 3070 3160 3272 3179 2705 2354 2091 1829 1712 1694 1693 1694 1694 1696 1698 1708 1765 1866 2006 2223 2562 2815 2837 2802 2862 2803 2698 2521 2319 2427 2599 2419 1993 1764 1642 1575 1533 1507 1490 1480 1475 1473 1473 1473 1473 1474 1479 1487 1505 1535 1576 1641 1732 1776 1757 1719 1694 1656 1621 1567 1514 1471 1436 1400 1376 1366 1353 1350 1351 1350 1350 1359 1411 1544 1826 2297 2231 2041 1959 1919 1864 1827 1788 1718 1673 1632 1596 1567 1540 1523 1532 1538 1537 1515 1516 1481 1462 1451 1438 1423 1409 1398 1393 1392 1390 1390 1391 1393 1393 1394 1394 1395 1396 1396 1397 1399 1401 1403 1403 1405 1406 1407 1408 1409 1408 1408 1407 1408 1418 1433 1440 1445 1463 1506 1565 1632 1710 1826 1914 2101 2156 2169 2247 2332 2533 2572 2241 1946 1788
432 404 393 403 509 520 460 349 399 247 140 105 195 102 91 71 45 39 36 33 28 24 22 21 19 17 17 16 16 17 20 22 18 17 16 16 16 16 16 16 16 18 21 23 22 22 21 21 23 23 23 24 24 24 24 24 25 25 26 29 33 32 35 41 69 103 98 109 134 165 202 250 339 416 335 523 444 432 472 334 248 354 482 479 460 463 558 526 670 752 773 787 852 915 939 1016 1125 1138 1101 1082 1117 1200 1287 1342 1384 1439 1413 1495 1514 1494 1433 1495 1551 1652 1676 1738 1795 1815 1883 1883 1840 1875 1991 2013 2041 2046 2042 2037 2155 2133 2191 2211 2224 2356 2134 2082 2025 1951 2040 1950 1893 1968 1866 1814 1786 1797 1902 2015 2090 2225 2403 2444 2620 2678 2728 2829 2667 2633 2629 2539 2136 1824 1606 1537 1533 1552 1609 1717 1818 1901 1990 2157 2133 1888 1820 1712 1709 1545 1405 1343 1328 1322 1315 1349 1358 1342 1466 1469 1354 1314 1298 1305 1348 1407 1424 1385 1324 1290 1287 1290 1279 1281 1284 1281 1278 1273 1272 1273 1274 1276 1282 1322 1347 1351 1376 1370 1301 1275 1232 1213 1204 1203 1201 1199 1197 1195 1194 1194 1194 1194 1194 1194 1194 1196 1233 1334 1357 1291 1223 1204 1198 1195 1194 1198 1204 1199 1203 1218 1275 1483 1448 1427 1355 1300 1289 1284 1277 1273 1280 1297 1325 1343 1353 1358 1356 1330 1339 1370 1466 1494 1451 1432 1432 1459 1459 1474 1504 1531 1549 1649 1694 1701 1721 1812 1908 2015 2273 2507 2478 2283 2342 2426 2425 2382 2149 1992 1909 1870 1848 1846 1845 1846 1845 1845 1849 1865 1902 1967 2072 2101 2041 1932 1854 1813 1806 1804 1802 1799 1811 1901 2082 2299 2509 2787 2721 2565 3051 2968 2503 2101 1897 1799 1761 1737 1730 1727 1723 1719 1718 1722 1744 1770 1824 1915 1985 2022 2105 2144 2041 1985 1959 1960 1972 1986 2004 2028 2059 2110 2187 2361 2462 2330 2370 2390 2452 2647 2692 2418 2171 2076 2022 1987 1963 1947 1934 1923 1920 1937 1966 1976 1981 2017 2061 2114 2173 2282 2392 2253 2104 1929 1864 1860 1862 1869 1869 1863 1839 1829 1828 1828 1908 1939 2018 2051 1983 1978 1960 1989 2068 2124 2032 1990 1965 1943 1926 1929 1947 1978 2035 2128 2192 2211 2200 2250 2398 2523 2313 2284 2142 2202 2358 2443 2181 2060 1976 1933 1924 1925 1925 1927 1943 1971 2002 2063 2120 2203 2341 2566 2375 2203 2173 2143 2107 2088 2125 2136 2045 1991 1975 1960 1907 1904 1903 1915 1993 2132 2405 2691 2586 2464 2475 2585 2774 3005 3174 3111 3024 3008 3351 2844 2499 2164 1878 1735 1697 1695 1695 1697 1704 1716 1731 1784 1884 2152 2345 2538 2693 2930 2934 2970 3081 3146 2885 2660 2686 2520 2257 2035 1795 1679 1593 1527 1494 1484 1478 1476 1476 1475 1475 1475 1476 1483 1500 1522 1548 1586 1633 1683 1769 1796 1796 1777 1735 1690 1628 1559 1508 1462 1422 1400 1393 1357 1355 1353 1350 1352 1365 1447 1617 1987 2368 2212 2002 1906 1845 1835 1783 1739 1703 1664 1624 1589 1560 1535 1520 1534 1513 1498 1507 1526 1478 1446 1439 1430 1421 1410 1400 1393 1390 1389 1389 1391 1392 1392 1392 1393 1394 1395 1395 1397 1398 1399 1400 1402 1403 1403 1403 1404 1405 1406 1405 1405 1405 1414 1425 1436 1446 1474 1515 1560 1616 1681 1769 1887 2022 2114 2263 2412 2547 2548 2554 2210 1885 1751
499 415 387 386 499 578 533 418 388 263 138 133 267 116 67 57 42 37 34 31 28 25 22 20 18 16 16 16 16 16 18 21 17 16 16 15 16 16 16 16 18 25 30 36 39 30 22 20 21 22 22 23 23 23 23 22 23 24 26 26 31 32 35 39 68 158 136 108 110 179 181 201 294 316 372 452 306 277 296 310 309 345 448 447 554 587 549 690 797 842 865 843 930 939 1025 1083 1057 967 1042 1126 1103 1250 1316 1362 1310 1314 1282 1374 1334 1434 1586 1581 1598 1589 1688 1906 2002 1998 1965 1966 1999 2047 2078 2103 2032 2110 2061 1943 2052 2088 2086 2055 2309 2322 2135 2038 2041 2178 2103 1935 1897 1961 1884 1864 1907 1904 1963 2123 2256 2357 2486 2518 2703 2713 2564 2488 2493 2517 2666 2450 2119 1743 1546 1534 1532 1540 1560 1628 1756 1856 1988 1954 1831 1749 1776 1777 1560 1408 1337 1325 1317 1315 1323 1392 1330 1398 1403 1331 1373 1332 1349 1343 1337 1327 1311 1317 1313 1335 1295 1286 1287 1286 1283 1281 1278 1274 1273 1273 1275 1279 1307 1343 1389 1411 1408 1377 1304 1303 1258 1231 1212 1211 1203 1200 1198 1196 1195 1195 1198 1202 1196 1195 1196 1199 1206 1231 1270 1304 1321 1264 1232 1215 1199 1193 1190 1190 1191 1199 1314 1481 1476 1447 1390 1311 1281 1274 1270 1268 1278 1305 1344 1383 1413 1427 1397 1361 1359 1375 1410 1464 1417 1419 1436 1466 1477 1501 1531 1571 1630 1810 1726 1656 1719 1773 1864 2022 2332 2474 2486 2288 2181 2280 2307 2462 2180 1992 1882 1851 1847 1846 1847 1847 1846 1847 1862 1893 1931 1987 2094 2164 2094 1973 1877 1824 1815 1812 1809 1805 1815 2117 2428 2648 2579 2480 2544 2786 3069 2689 2297 1967 1825 1748 1727 1718 1716 1714 1713 1712 1714 1732 1764 1799 1839 1922 2003 2111 2266 2237 2068 2000 1967 1964 1974 1986 2001 2019 2042 2077 2157 2243 2337 2309 2297 2329 2440 2749 2646 2362 2175 2096 2024 1980 1954 1942 1933 1925 1925 1953 1988 2011 2003 2003 2026 2062 2092 2167 2235 2164 2030 1894 1850 1844 1843 1844 1844 1840 1833 1832 1831 1832 1849 1895 1999 2097 2040 2078 1999 2034 2105 2062 2003 1971 1951 1934 1924 1933 1988 2053 2161 2395 2590 2328 2311 2348 2511 2665 2381 2364 2189 2216 2405 2461 2171 2050 1964 1924 1922 1923 1923 1925 1929 1946 1970 2098 2142 2242 2312 2326 2331 2282 2273 2200 2126 2096 2075 2161 2098 2072 2124 2116 1945 1914 1914 1935 2018 2137 2376 2735 2678 2579 2531 2684 2915 3029 2916 2706 2816 2777 3245 2931 2513 2180 1896 1728 1699 1698 1698 1706 1725 1745 1770 1813 1989 2256 2223 2311 2515 2714 2737 3010 3270 3350 3217 3050 2886 2691 2362 2148 1890 1702 1595 1520 1489 1482 1479 1478 1478 1478 1478 1477 1480 1494 1523 1552 1574 1605 1659 1712 1777 1848 1863 1839 1849 1748 1701 1620 1554 1493 1455 1451 1388 1361 1359 1353 1352 1357 1373 1509 1863 2236 2204 2068 1995 1875 1806 1769 1736 1695 1671 1643 1611 1581 1554 1531 1511 1508 1506 1486 1479 1475 1455 1437 1430 1427 1418 1410 1402 1394 1391 1389 1389 1390 1391 1392 1392 1393 1393 1394 1395 1396 1397 1399 1399 1401 1401 1401 1400 1401 1402 1403 1402 1402 1402 1410 1419 1428 1443 1470 1503 1551 1630 1698 1746 1818 1897 2100 2414 2421 2497 2324 2456 2089 1819 1696
599 476 409 390 432 580 576 521 403 351 162 157 242 112 76 55 41 37 34 31 27 24 22 19 17 16 15 16 16 16 19 21 20 17 16 16 16 15 15 19 27 55 93 83 75 63 41 24 20 20 21 21 22 23 22 21 23 24 24 25 28 30 40 34 38 104 195 119 89 140 137 154 149 236 387 430 239 385 412 431 364 447 559 599 626 643 656 712 724 781 815 804 818 873 963 1001 1013 992 1000 1002 1141 1253 1308 1213 1143 1223 1248 1244 1433 1547 1531 1549 1526 1557 1700 1747 1873 2062 1941 1803 1935 1934 1859 1820 1984 2121 2047 1784 1930 1918 1855 1987 2183 2251 2389 2188 2283 2355 2238 1964 1950 1982 1968 2202 2192 2078 2142 2166 2253 2251 2201 2269 2445 2251 2238 2125 2271 2308 2525 2137 1974 1656 1540 1534 1531 1533 1540 1637 1827 2122 2122 1853 1691 1645 1600 1678 1441 1332 1320 1317 1325 1332 1415 1461 1533 1665 1619 1480 1423 1461 1497 1419 1385 1402 1399 1316 1361 1379 1361 1371 1379 1383 1357 1322 1307 1282 1280 1276 1278 1289 1327 1365 1417 1416 1417 1393 1376 1344 1285 1245 1233 1226 1220 1219 1212 1208 1208 1231 1297 1344 1290 1210 1201 1201 1202 1208 1224 1316 1414 1391 1337 1258 1204 1193 1185 1187 1191 1210 1259 1327 1410 1478 1460 1341 1275 1269 1268 1268 1287 1340 1409 1467 1542 1576 1479 1436 1420 1432 1461 1494 1506 1453 1465 1504 1515 1537 1576 1620 1674 1834 1770 1671 1712 1781 1877 2034 2177 2316 2302 2231 2165 2180 2243 2272 2060 1903 1859 1853 1851 1849 1848 1848 1855 1864 1891 1927 1970 2011 2088 2258 2305 2082 1916 1837 1823 1819 1818 1833 1884 2261 2677 2602 2505 2550 2903 3003 2837 2535 2108 1863 1761 1718 1710 1708 1707 1707 1707 1709 1716 1736 1768 1832 1906 1919 2017 2157 2333 2265 2091 2020 1981 1966 1973 1986 1998 2012 2032 2064 2140 2205 2441 2513 2378 2341 2378 2549 2601 2521 2238 2111 2020 1970 1954 1942 1934 1929 1931 1975 2058 2078 2047 2032 2025 2034 2058 2105 2188 2047 1940 1866 1843 1842 1842 1841 1840 1838 1836 1834 1834 1835 1854 1912 1995 2128 2146 2092 2028 2074 2073 2017 1983 1968 1942 1930 1929 1958 2031 2141 2391 2689 2685 2425 2392 2455 2660 2630 2381 2289 2224 2275 2483 2390 2172 2049 1967 1924 1920 1921 1922 1923 1924 1931 1967 2100 2222 2322 2362 2226 2187 2191 2220 2187 2151 2143 2131 2084 2103 2213 2300 2053 1940 1929 1928 1957 2031 2155 2375 2738 2934 2717 2639 2833 3081 3141 2882 2523 2609 2535 2935 2944 2491 2113 1845 1709 1700 1699 1701 1716 1741 1777 1818 1868 2072 2083 2274 2486 2535 2576 2749 3114 3423 3154 3144 3109 2984 2829 2683 2293 1948 1729 1605 1530 1493 1484 1482 1481 1480 1481 1480 1480 1487 1510 1545 1592 1615 1644 1700 1768 1902 1986 1960 1976 1960 1813 1805 1690 1641 1528 1473 1455 1390 1381 1369 1353 1358 1383 1424 1603 2148 2156 2019 1937 1897 1831 1779 1750 1710 1675 1643 1617 1593 1569 1549 1531 1524 1505 1494 1484 1472 1461 1452 1438 1425 1419 1412 1403 1397 1394 1392 1390 1389 1389 1390 1391 1392 1393 1393 1394 1395 1396 1397 1398 1399 1399 1399 1399 1399 1400 1400 1400 1400 1400 1400 1406 1419 1427 1437 1457 1485 1521 1572 1622 1673 1743 1870 2130 2317 2256 2204 2154 2220 2052 1752 1645
546 545 500 427 408 524 578 588 410 363 179 221 225 93 65 51 41 37 33 30 26 23 20 18 15 15 15 15 15 14 17 18 21 17 17 16 15 15 18 38 78 100 179 134 113 144 67 30 25 19 20 20 21 22 21 21 22 22 23 24 26 27 34 33 31 38 105 131 81 92 129 113 170 212 289 302 213 294 421 454 412 451 509 563 637 666 664 685 702 780 827 818 852 959 1071 1072 1076 946 898 1008 1132 1232 1164 1087 1221 1146 1298 1399 1471 1427 1432 1435 1469 1508 1566 1630 1791 1956 1863 1803 1768 1761 1613 2059 2263 2133 1811 1577 1693 1789 1773 1835 1903 1997 2330 2510 2357 2228 2150 1954 2074 2195 2174 2245 2410 2270 2213 2192 2092 1982 1981 2059 2092 1958 1963 1967 2031 2213 2387 2008 1968 1662 1550 1535 1530 1530 1537 1632 1881 2110 2008 1794 1659 1611 1505 1506 1427 1326 1324 1329 1335 1375 1476 1567 1625 1691 1793 1704 1597 1518 1451 1414 1455 1406 1385 1331 1411 1417 1408 1504 1523 1488 1517 1540 1533 1500 1455 1373 1352 1354 1367 1426 1422 1392 1390 1421 1385 1369 1304 1279 1272 1330 1360 1344 1324 1315 1260 1271 1386 1405 1265 1214 1203 1203 1211 1222 1237 1304 1486 1514 1478 1361 1223 1193 1189 1189 1200 1221 1264 1361 1572 1570 1453 1316 1270 1267 1267 1275 1317 1386 1486 1600 1736 1794 1617 1539 1532 1562 1542 1555 1587 1506 1500 1531 1566 1579 1642 1727 1785 1902 1774 1705 1728 1800 1877 2008 2127 2162 2270 2325 2329 2149 2206 2056 1916 1880 1867 1861 1858 1855 1855 1864 1897 1922 1945 1987 2014 2023 2066 2101 2141 2084 1936 1847 1832 1835 1855 1895 1967 2327 2690 2496 2398 2657 3104 3110 2664 2292 1948 1809 1742 1717 1707 1703 1702 1702 1704 1706 1717 1744 1801 1878 2009 2009 1997 2130 2372 2291 2127 2043 2003 1979 1971 1981 1991 2007 2041 2123 2355 2317 2382 2521 2554 2595 2522 2546 2561 2375 2185 2070 2008 1979 1961 1948 1939 1941 1965 2055 2187 2210 2102 2072 2061 2052 2063 2098 2137 2035 1919 1862 1844 1845 1846 1846 1845 1842 1840 1838 1839 1846 1868 1921 2010 2157 2162 2102 2125 2073 2039 1997 1974 1958 1944 1940 1945 1984 2062 2197 2521 2853 2809 2638 2540 2510 2562 2575 2468 2353 2260 2344 2466 2319 2174 2061 1977 1931 1922 1922 1922 1923 1925 1945 1995 2077 2214 2369 2322 2195 2122 2096 2142 2203 2261 2223 2190 2191 2205 2114 2068 1984 1974 1948 1941 1987 2044 2145 2364 2586 2678 2807 2677 2712 2936 3115 2761 2510 2317 2405 2550 2507 2214 1938 1775 1719 1703 1701 1703 1717 1751 1792 1844 1940 1998 2098 2335 2752 2726 2746 2807 3172 3197 2878 2910 2995 2705 2457 2352 2168 1888 1720 1625 1551 1500 1488 1486 1485 1484 1484 1484 1485 1494 1533 1604 1647 1661 1688 1747 1851 2095 2151 2118 2136 2001 1900 1819 1721 1685 1561 1486 1439 1402 1401 1383 1356 1374 1421 1487 1629 1967 1961 1946 1914 1845 1800 1756 1724 1694 1659 1629 1602 1578 1558 1538 1528 1531 1531 1539 1506 1478 1459 1453 1444 1434 1422 1408 1400 1395 1393 1392 1390 1389 1389 1388 1390 1391 1393 1393 1396 1394 1395 1396 1397 1398 1399 1397 1397 1398 1398 1398 1398 1398 1398 1399 1405 1418 1426 1435 1451 1478 1510 1545 1593 1641 1692 1778 1897 1960 2021 2010 2032 2079 2037 1714 1624
667 619 583 498 432 459 534 591 357 301 198 257 216 100 63 46 39 34 30 28 25 21 19 17 15 15 15 14 14 14 16 18 20 17 18 17 15 16 23 40 63 109 216 269 234 270 175 108 56 21 19 19 21 21 21 20 21 21 22 22 23 23 29 27 30 39 98 96 69 71 87 117 154 131 287 208 218 305 381 404 398 446 514 576 624 689 717 747 800 823 821 889 953 1003 975 955 1001 881 858 979 1093 1145 1029 1056 1150 1314 1369 1335 1258 1282 1255 1235 1429 1583 1649 1714 1803 1896 1624 1621 1445 1314 1617 1825 2066 1880 1431 1823 1983 2070 2022 1957 2064 2186 2109 2313 2474 2299 2149 1995 1968 2082 2191 2354 2424 2276 2107 1980 1919 1901 1902 1951 1953 1898 1898 1899 1943 2250 2421 2082 2029 1719 1614 1557 1533 1563 1655 1736 1805 1894 1781 1628 1534 1496 1431 1405 1377 1338 1353 1354 1411 1487 1663 1792 1837 1804 1780 1705 1635 1652 1584 1567 1464 1461 1378 1337 1350 1364 1414 1527 1560 1575 1762 1847 1857 1803 1679 1504 1461 1452 1529 1554 1530 1451 1442 1427 1370 1330 1309 1339 1398 1551 1600 1566 1545 1456 1366 1299 1288 1302 1246 1233 1211 1212 1225 1240 1260 1323 1495 1567 1549 1463 1293 1213 1204 1210 1225 1250 1303 1451 1668 1603 1535 1303 1273 1274 1274 1295 1353 1440 1551 1706 1881 2161 1774 1753 1753 1679 1639 1651 1648 1561 1568 1630 1620 1660 1716 1859 1935 1926 1809 1789 1735 1795 1879 1969 2090 2149 2251 2416 2278 2158 2013 1927 1903 1884 1872 1868 1867 1866 1881 1897 1972 2057 2143 2144 2078 2126 2156 2141 2063 2015 1906 1848 1851 1877 1916 1961 2036 2221 2489 2686 2449 2436 2641 2758 2449 2063 1850 1774 1742 1722 1708 1700 1699 1700 1701 1708 1737 1778 1830 1960 2053 2124 2060 2121 2370 2385 2172 2075 2028 1996 1977 1976 1983 2007 2066 2181 2427 2417 2343 2408 2477 2529 2513 2542 2513 2270 2106 2066 2003 1983 1965 1952 1951 1967 2045 2167 2249 2262 2160 2129 2102 2085 2083 2126 2188 2119 1927 1867 1854 1850 1851 1851 1849 1847 1844 1843 1849 1858 1878 1936 2026 2043 2050 2118 2151 2056 2013 1986 1987 1965 1973 1982 1983 2000 2075 2197 2447 2846 2949 2644 2567 2697 2470 2646 2610 2456 2319 2447 2511 2426 2207 2076 1995 1953 1937 1927 1925 1927 1930 1953 1997 2097 2211 2305 2243 2164 2076 2059 2077 2162 2282 2276 2281 2328 2254 2218 2085 2037 2009 1976 1949 1997 2059 2131 2259 2362 2596 2806 2668 2537 2809 3067 2826 2574 2277 2227 2189 2220 1985 1837 1776 1745 1714 1705 1706 1720 1756 1828 2012 2227 2188 2233 2449 2783 2577 2571 2739 3064 3111 2972 2660 2566 2501 2416 2318 2125 1862 1707 1615 1548 1509 1495 1491 1490 1489 1487 1489 1498 1514 1603 1739 1685 1727 1759 1776 1917 2226 2314 2299 2196 2008 1969 1865 1762 1653 1559 1503 1450 1411 1410 1387 1360 1380 1446 1536 1761 1815 1879 2093 2086 1997 1911 1818 1754 1702 1655 1618 1590 1564 1543 1524 1520 1531 1549 1574 1583 1510 1460 1446 1436 1428 1418 1408 1400 1395 1394 1391 1389 1389 1390 1391 1391 1390 1392 1394 1445 1414 1396 1396 1395 1396 1398 1397 1395 1396 1396 1397 1397 1397 1398 1399 1403 1414 1424 1433 1446 1468 1493 1523 1557 1593 1642 1703 1753 1793 1850 1891 1908 1928 1963 1747 1658
713 690 588 543 453 481 539 542 342 331 198 314 219 98 60 43 38 33 29 26 23 21 19 18 16 15 14 14 14 14 16 19 18 16 16 15 15 15 31 82 83 256 322 397 299 273 193 121 58 20 18 19 20 20 19 19 20 21 20 21 23 25 26 28 37 46 48 49 52 63 72 93 112 146 148 268 288 331 407 449 420 460 500 548 619 701 721 766 758 776 830 880 901 894 814 872 913 797 856 976 940 944 957 1086 1189 1272 1312 1173 1016 1062 1191 1335 1338 1524 1591 1545 1310 1182 1039 1182 1350 1219 1162 1216 1268 1540 1632 1919 2096 2091 2039 2111 2270 2429 2316 2318 2421 2347 2221 2020 1925 2144 2282 2342 2330 2217 2037 1914 1898 1898 1898 1898 1900 1898 1898 1898 1914 2220 2402 2146 2191 1896 1850 1650 1590 1642 1711 1569 1547 1650 1641 1560 1492 1458 1458 1407 1368 1406 1408 1437 1521 1620 1810 2087 2144 1974 1806 1709 1805 1804 1749 1630 1587 1441 1375 1337 1316 1358 1409 1445 1466 1617 1830 1938 1903 1717 1515 1431 1427 1443 1571 1643 1669 1553 1480 1443 1394 1399 1458 1527 1576 1695 1816 1764 1697 1601 1415 1288 1240 1259 1269 1278 1262 1258 1261 1273 1293 1347 1437 1580 1736 1561 1369 1268 1238 1245 1265 1295 1351 1571 1652 1595 1406 1293 1286 1286 1290 1319 1390 1484 1639 1817 2108 2207 1875 1888 1884 1817 1784 1780 1670 1603 1653 1699 1682 1767 1845 1924 2055 1994 1894 1815 1777 1788 1846 1967 2120 2230 2314 2372 2180 2052 1972 1927 1900 1883 1875 1874 1877 1898 1955 2023 2222 2162 2193 2280 2285 2271 2328 2128 2083 1937 1865 1870 1881 1914 1972 2023 2091 2256 2507 2746 2740 2540 2316 2286 2066 1922 1814 1779 1754 1730 1710 1699 1697 1697 1698 1713 1755 1824 1897 2050 2150 2211 2176 2237 2335 2397 2251 2112 2042 2008 1989 1979 1982 2011 2090 2260 2510 2437 2345 2306 2367 2408 2332 2351 2413 2223 2140 2087 1988 1974 1962 1955 1968 2024 2150 2344 2409 2377 2245 2190 2142 2120 2111 2144 2167 2096 1950 1896 1873 1860 1856 1854 1853 1850 1848 1853 1861 1872 1891 1960 1997 1984 2047 2052 2019 2006 1993 1957 1980 1979 2007 2048 2099 1991 2027 2131 2253 2500 2763 2438 2429 2587 2385 2574 2692 2536 2447 2601 2492 2368 2203 2086 2019 1979 1960 1942 1934 1934 1937 1959 2001 2095 2196 2266 2263 2117 2050 2027 2063 2147 2192 2212 2233 2235 2245 2271 2129 2090 2049 2006 1971 1970 2025 2087 2234 2397 2526 2531 2513 2466 2846 2998 2960 2815 2528 2294 2125 1988 1891 1835 1798 1760 1724 1709 1708 1723 1868 1976 2119 2178 2415 2548 2608 2707 2621 2536 2670 2788 3214 3175 2907 3004 2642 2385 2121 1993 1808 1669 1597 1554 1519 1500 1495 1493 1494 1494 1512 1533 1566 1674 1777 1747 1816 1901 1835 1958 2091 2233 2276 2062 1999 1978 1867 1765 1662 1566 1504 1451 1413 1387 1369 1363 1387 1512 1686 1874 2171 2168 2143 2072 2003 1913 1835 1767 1708 1654 1607 1572 1547 1527 1513 1516 1536 1553 1576 1589 1519 1465 1451 1436 1421 1413 1404 1398 1392 1391 1390 1388 1388 1390 1392 1391 1389 1392 1429 1470 1446 1413 1400 1395 1396 1397 1396 1395 1394 1396 1396 1396 1397 1398 1399 1404 1411 1421 1430 1442 1457 1479 1502 1527 1559 1596 1633 1674 1720 1771 1822 1832 1859 1965 1865 1777
673 701 613 550 437 493 506 521 337 368 238 354 245 94 58 42 37 33 29 26 24 21 20 18 17 16 15 14 13 13 14 15 16 18 16 17 17 16 17 43 103 218 186 296 160 105 172 83 31 19 17 18 18 19 19 20 20 20 20 20 23 27 28 29 33 37 42 55 79 89 100 152 190 254 236 274 332 394 455 484 454 432 454 518 606 682 704 743 739 798 859 877 858 809 787 763 774 872 834 835 884 911 1042 1105 1158 1215 1169 903 946 1028 966 990 967 1049 1043 1038 1199 1480 1557 1813 1914 1586 1465 1622 1588 1957 2108 2115 2061 1885 1847 2043 2230 2404 2515 2509 2364 2130 1987 1962 1947 2203 2174 2112 2064 2041 1964 1898 1898 1898 1898 1898 1898 1898 1898 1898 1913 2371 2561 2371 2341 2287 2012 1719 1604 1482 1468 1452 1453 1492 1472 1502 1482 1456 1439 1441 1512 1503 1502 1539 1640 1816 2130 2347 2227 1989 1854 1798 1840 1837 1786 1706 1564 1396 1368 1338 1312 1344 1390 1401 1477 1629 1711 1643 1608 1497 1378 1353 1348 1377 1450 1533 1661 1690 1654 1614 1569 1552 1614 1662 1681 1719 1839 1791 1666 1574 1376 1234 1231 1277 1315 1381 1449 1413 1348 1351 1356 1366 1444 1566 1731 1651 1519 1428 1307 1297 1330 1365 1497 1622 1590 1513 1364 1310 1302 1304 1314 1349 1420 1522 1670 1892 2167 2089 1926 2004 1943 1860 1848 1793 1689 1683 1739 1775 1726 1808 1941 2029 2057 2098 1973 1879 1856 1830 1854 1963 2100 2144 2248 2261 2112 2044 1972 1931 1899 1885 1885 1893 1912 1946 2022 2171 2345 2377 2405 2417 2437 2438 2306 2116 1962 1884 1887 1907 1922 1945 2007 2110 2219 2366 2703 2999 3001 2726 2561 2292 1989 1873 1817 1778 1751 1728 1708 1696 1695 1695 1696 1705 1753 1883 2003 2071 2207 2340 2277 2392 2470 2379 2229 2102 2047 2018 1998 1987 1988 2019 2095 2305 2419 2380 2274 2281 2387 2435 2388 2333 2261 2174 2182 2164 1993 1970 1968 1966 1983 2117 2219 2433 2559 2457 2318 2224 2177 2138 2141 2216 2139 2044 1959 1916 1889 1870 1862 1860 1858 1856 1859 1868 1878 1888 1903 1932 1969 1990 2046 2025 1988 1962 1957 1936 1944 1977 2037 2129 2141 1941 1957 2030 2117 2264 2623 2412 2300 2281 2358 2450 2517 2507 2579 2660 2450 2324 2189 2094 2035 2003 1979 1959 1947 1943 1948 1975 2011 2092 2163 2211 2140 2063 2011 2006 2041 2076 2120 2174 2264 2383 2402 2387 2223 2148 2093 2043 1994 1969 2004 2061 2184 2294 2329 2362 2298 2347 2550 2755 2734 2952 2566 2262 2100 1980 1893 1839 1795 1761 1727 1712 1715 1745 1810 1889 1975 2198 2430 2632 2501 2505 2565 2503 2490 2748 2877 2971 2985 2958 2759 2456 2201 1951 1809 1657 1604 1558 1524 1505 1499 1497 1497 1510 1536 1567 1605 1656 1717 1785 1931 1983 1901 1961 2091 2248 2159 2066 2011 1877 1866 1734 1665 1577 1511 1463 1421 1385 1368 1379 1430 1544 1834 2169 2483 2373 2224 2262 2155 2000 1872 1761 1686 1635 1588 1550 1525 1507 1499 1508 1531 1529 1545 1568 1512 1472 1457 1439 1419 1410 1402 1394 1391 1389 1388 1388 1388 1389 1391 1390 1389 1395 1459 1460 1438 1417 1400 1396 1396 1396 1395 1395 1395 1396 1397 1399 1404 1403 1404 1405 1409 1417 1427 1439 1451 1467 1484 1507 1533 1567 1640 1726 1763 1784 1782 1768 1772 1807 1854 1974
579 602 640 643 465 467 448 502 356 274 255 436 306 109 64 44 38 35 32 30 27 23 21 19 18 17 15 15 13 13 13 13 14 16 16 16 15 15 18 28 56 92 114 126 110 70 75 51 20 16 16 17 17 18 19 18 19 19 19 21 25 25 27 30 32 34 40 45 69 84 106 129 191 242 277 282 363 391 466 524 484 492 503 486 570 668 666 702 705 763 874 763 832 855 826 754 780 845 769 809 861 952 1020 1180 1049 740 814 839 895 867 1236 1488 1505 1541 1504 1531 1646 1653 1737 1905 1964 1895 1769 1714 1850 1972 2118 2119 1875 1741 1804 2009 2036 2081 2413 2434 2493 2268 2153 2040 1995 2204 2224 2070 1976 1919 1920 1898 1898 1898 1898 1898 1898 1898 1898 1898 1905 2245 2468 2516 2434 2311 1984 1714 1549 1462 1440 1427 1422 1412 1420 1467 1471 1579 1659 1621 1685 1654 1582 1608 1759 1967 2163 2246 2162 1986 1925 1887 1896 1878 1824 1713 1586 1442 1447 1367 1351 1320 1340 1389 1468 1474 1429 1389 1361 1419 1377 1327 1322 1352 1399 1485 1634 1690 1673 1559 1583 1579 1656 1676 1735 1655 1622 1619 1584 1491 1395 1239 1193 1201 1246 1314 1442 1452 1464 1461 1407 1391 1417 1515 1672 1726 1590 1672 1455 1375 1423 1479 1660 1704 1666 1574 1407 1348 1329 1324 1343 1379 1441 1539 1709 1917 2113 1958 1909 1951 1962 1930 1909 1781 1732 1767 1765 1784 1806 1817 1881 1956 2025 2075 2014 1951 1915 1882 1948 2014 2139 2176 2135 2090 2042 2024 1978 1921 1895 1891 1903 1926 1970 2036 2223 2361 2468 2555 2705 2620 2539 2435 2319 2135 1953 1889 1920 1947 1976 2011 2140 2353 2372 2485 2662 2956 2933 2730 2508 2244 1995 1858 1786 1757 1738 1715 1700 1694 1692 1694 1704 1729 1822 2057 2262 2313 2265 2409 2385 2381 2367 2272 2141 2087 2053 2026 2006 1995 1994 2029 2085 2220 2300 2358 2230 2290 2450 2478 2397 2297 2221 2165 2313 2231 2034 1984 1987 2001 2085 2303 2459 2446 2561 2485 2356 2264 2202 2145 2133 2157 2122 2022 1954 1955 1894 1877 1869 1867 1864 1864 1875 1888 1901 1913 1929 1962 2021 1984 1988 2003 2015 1950 1914 1922 1928 1966 2040 2186 1989 1885 1897 1949 2003 2159 2472 2315 2204 2252 2375 2411 2343 2473 2561 2544 2409 2386 2190 2099 2054 2019 1990 1969 1963 1960 1956 1975 2008 2039 2078 2102 2050 2029 1982 1993 2019 2060 2121 2201 2306 2486 2649 2450 2313 2215 2118 2051 2004 1982 2014 2059 2122 2175 2181 2207 2294 2336 2388 2547 2725 3013 2723 2277 2107 1961 1875 1815 1768 1742 1722 1715 1726 1762 1812 1881 1975 2097 2352 2621 2414 2316 2395 2462 2343 2436 2575 2682 2537 2430 2378 2281 2086 1832 1752 1613 1574 1537 1514 1505 1501 1501 1504 1530 1560 1597 1644 1677 1747 1861 1970 1926 1967 1920 1975 2001 2010 2068 2079 1862 1782 1702 1640 1583 1527 1477 1433 1386 1369 1396 1462 1641 1982 2471 2567 2431 2356 2344 2191 2075 1858 1735 1654 1603 1564 1531 1505 1489 1484 1489 1499 1502 1513 1545 1532 1469 1448 1431 1419 1415 1405 1393 1391 1389 1388 1389 1389 1389 1387 1388 1389 1390 1418 1432 1433 1405 1396 1392 1393 1395 1396 1395 1396 1397 1397 1400 1404 1411 1414 1408 1409 1413 1425 1440 1451 1462 1475 1490 1508 1536 1591 1665 1672 1714 1767 1735 1731 1814 1947 2115
481 560 628 687 506 415 418 518 372 285 238 381 329 110 65 48 42 39 35 32 28 25 22 21 19 18 16 14 13 13 12 12 13 13 14 14 15 13 15 16 21 42 58 62 54 44 33 24 16 15 15 16 17 17 19 18 18 19 20 23 23 24 26 27 28 30 39 50 62 73 87 131 147 189 269 262 308 325 396 473 454 527 529 536 604 686 658 650 666 744 770 705 741 765 756 710 775 787 786 871 1016 927 989 865 831 881 1177 1192 1117 932 1125 1467 1554 1573 1586 1562 1596 1622 1709 1875 1897 1908 1995 1960 2002 1990 1988 2004 1758 1751 1932 2194 2422 2109 2305 2276 2228 2367 2177 2324 2186 2049 2059 1960 1899 1898 1898 1898 1898 1898 1898 1898 1898 1898 1898 1898 1939 2205 2438 2601 2524 2261 2051 1770 1514 1470 1431 1417 1413 1409 1446 1481 1542 1646 1674 1805 1810 1683 1613 1669 1876 2011 2049 2191 2127 2021 1961 1932 2047 2048 1874 1800 1641 1458 1454 1454 1421 1347 1329 1366 1360 1328 1316 1315 1317 1384 1389 1319 1312 1330 1349 1381 1512 1558 1477 1434 1556 1606 1548 1503 1540 1574 1528 1523 1545 1443 1362 1289 1197 1186 1195 1232 1314 1326 1408 1425 1439 1458 1471 1478 1554 1639 1652 1714 1613 1486 1524 1596 1688 1810 1735 1626 1493 1404 1363 1347 1371 1412 1463 1531 1666 1894 1995 1803 1781 1855 1916 2015 1885 1782 1740 1758 1754 1773 1797 1837 1884 1939 1999 2037 2029 2025 1964 1953 2020 2088 2077 2080 2048 2059 2012 1996 1935 1908 1901 1906 1921 1955 2009 2152 2371 2599 2536 2655 2816 2586 2429 2337 2235 2109 1956 1904 1952 1984 2019 2088 2248 2464 2561 2667 2793 2946 3052 2843 2507 2130 1912 1806 1743 1723 1712 1700 1693 1691 1691 1699 1731 1777 1870 2099 2379 2552 2427 2500 2428 2340 2251 2190 2130 2096 2061 2033 2016 2001 2003 2025 2071 2180 2196 2246 2193 2292 2504 2550 2620 2507 2328 2217 2258 2254 2079 2008 2017 2066 2216 2469 2701 2709 2546 2483 2369 2266 2198 2124 2094 2154 2074 1989 1947 1935 1902 1885 1876 1874 1871 1879 1894 1909 1924 1942 1965 1996 2050 2030 1979 1951 2006 1978 1898 1897 1913 1964 2058 2195 1903 1848 1856 1883 1919 2050 2320 2196 2149 2294 2304 2334 2279 2485 2568 2506 2393 2282 2163 2142 2154 2066 2017 1992 1989 1982 1973 1968 1986 1995 2031 2036 2036 1993 1965 1978 2009 2060 2131 2225 2378 2545 2798 2591 2391 2265 2163 2084 2033 2001 2019 2048 2087 2127 2168 2307 2465 2508 2578 2532 2693 3113 2866 2481 2160 1934 1846 1787 1746 1726 1717 1718 1731 1762 1843 1931 1992 2077 2310 2514 2317 2276 2222 2207 2200 2118 2293 2305 2200 2093 2075 1941 1848 1767 1619 1560 1535 1520 1510 1506 1506 1504 1520 1556 1595 1644 1686 1725 1815 1939 1899 1896 1912 1862 1898 1912 1972 2106 1987 1938 1925 1801 1724 1639 1548 1470 1410 1371 1365 1399 1475 1717 2139 2550 2597 2361 2193 2216 2170 1986 1832 1730 1652 1591 1546 1514 1489 1472 1466 1466 1470 1478 1484 1501 1505 1448 1432 1423 1412 1408 1401 1390 1389 1388 1389 1389 1389 1389 1389 1388 1390 1390 1392 1392 1395 1393 1391 1390 1392 1395 1396 1396 1398 1402 1404 1406 1408 1414 1414 1409 1408 1411 1416 1433 1447 1455 1465 1475 1490 1512 1542 1580 1615 1693 1691 1681 1731 1811 1980 2028
470 639 836 721 588 420 407 534 354 236 228 216 253 138 66 51 47 42 37 33 29 26 26 26 22 20 17 15 14 12 12 11 11 12 12 14 15 16 12 13 13 14 15 16 13 13 15 16 14 14 15 16 16 17 18 18 18 19 20 22 22 22 22 24 26 30 37 44 47 56 92 129 143 138 193 207 220 253 382 414 411 431 483 525 552 591 686 609 656 693 691 642 665 728 728 691 726 849 888 870 893 797 726 1079 1195 1170 1241 1278 1319 1248 1220 1434 1516 1458 1521 1458 1546 1536 1568 1657 1755 1984 2085 1935 1842 1883 1993 1780 1665 1786 1989 2197 2400 2250 2215 2125 2122 2435 2308 2222 2116 2139 2095 1946 1898 1898 1898 1898 1898 1898 1898 1898 1898 1898 1898 1898 1959 2259 2473 2641 2640 2413 2063 1724 1672 1564 1436 1422 1494 1412 1448 1600 1594 1650 1748 1868 1844 1730 1670 1740 1873 1997 2221 2409 2174 2024 1977 2036 1999 2022 1887 1792 1671 1493 1440 1454 1421 1349 1321 1314 1313 1313 1314 1314 1314 1316 1321 1324 1328 1314 1309 1330 1383 1370 1338 1353 1381 1418 1423 1423 1478 1576 1597 1495 1543 1524 1405 1273 1215 1194 1186 1187 1200 1228 1292 1375 1420 1491 1590 1584 1579 1617 1633 1686 1691 1614 1636 1757 1831 1847 1811 1672 1581 1466 1406 1376 1413 1472 1564 1654 1666 1682 1732 1702 1720 1768 1863 1967 1851 1760 1725 1719 1722 1747 1779 1807 1895 1901 1914 1934 1918 1972 1931 2008 2125 2071 2032 2018 2000 2006 1988 1962 1925 1918 1928 1936 1963 2013 2089 2263 2323 2521 2778 2854 2726 2517 2461 2474 2420 2073 1951 1918 1954 1992 2083 2153 2245 2388 2531 2603 2729 3012 2972 2689 2341 2032 1838 1748 1714 1699 1692 1688 1686 1687 1689 1704 1747 1804 1888 2073 2405 2613 2536 2597 2485 2375 2332 2281 2161 2098 2066 2043 2023 2005 2014 2030 2058 2092 2123 2159 2161 2243 2423 2509 2668 2571 2390 2266 2293 2342 2143 2047 2045 2119 2325 2470 2658 2823 2646 2590 2430 2291 2196 2121 2079 2061 2025 1978 1954 1946 1897 1887 1885 1885 1889 1907 1927 1942 1955 1972 1998 2039 2020 2041 1928 1930 1936 1910 1871 1896 1910 2017 2033 2046 1849 1826 1840 1862 1903 2018 2127 2147 2178 2213 2202 2283 2278 2421 2501 2405 2358 2263 2301 2240 2235 2109 2056 2027 2017 2008 1997 1970 1958 1973 1984 1993 2004 1948 1940 1963 1995 2045 2121 2280 2516 2901 2884 2719 2467 2261 2189 2120 2063 2010 2007 2034 2063 2098 2156 2365 2610 2507 2562 2490 2558 2828 2949 2445 2096 1919 1835 1782 1749 1730 1719 1720 1723 1759 1957 2125 2256 2183 2239 2269 2208 2168 2114 2094 2035 1979 2005 2036 2000 1944 1895 1816 1725 1646 1574 1535 1524 1518 1513 1510 1508 1508 1533 1585 1662 1767 1784 1776 1838 1902 1874 1843 1826 1818 1849 1864 1898 2020 2002 1972 1954 1886 1826 1823 1558 1445 1385 1365 1365 1404 1493 1621 1948 2404 2625 2406 2313 2170 2035 1949 1881 1747 1655 1595 1545 1506 1475 1456 1449 1447 1445 1447 1450 1451 1443 1423 1412 1407 1401 1399 1394 1389 1389 1390 1390 1390 1389 1390 1391 1392 1392 1392 1391 1392 1394 1396 1392 1391 1393 1395 1397 1397 1398 1404 1417 1428 1423 1417 1411 1408 1408 1410 1414 1423 1435 1448 1457 1467 1479 1497 1522 1548 1576 1613 1637 1688 1753 1823 1942 2161
505 703 892 805 640 451 404 458 422 244 262 179 314 129 70 58 51 45 40 36 33 31 30 29 25 23 21 17 15 13 12 11 10 11 12 14 16 14 12 11 11 11 12 12 12 11 11 12 13 13 14 15 15 16 17 17 17 18 19 20 20 22 22 23 25 26 32 41 39 48 63 100 132 115 143 158 168 263 331 373 362 470 463 483 505 585 716 579 628 644 605 582 696 680 668 688 774 858 749 820 680 597 977 1115 1168 1148 1207 1253 1324 1397 1422 1399 1388 1459 1370 1342 1397 1476 1596 1705 1874 1916 1842 1719 1866 1985 1880 1679 1767 1980 2046 2041 2120 2347 2300 2088 2111 2396 2239 2184 2258 2130 1979 1903 1898 1898 1898 1898 1898 1898 1898 1898 1898 1898 1898 1911 2075 2255 2402 2394 2477 2144 1900 1860 1800 1609 1446 1442 1555 1532 1469 1682 1713 1735 1811 1872 1841 1796 1746 1799 1919 2034 2166 2411 2362 2107 1967 1996 2017 2006 1925 1677 1555 1483 1470 1481 1429 1340 1316 1315 1315 1316 1316 1316 1316 1316 1319 1358 1391 1339 1315 1309 1307 1310 1308 1309 1311 1329 1370 1400 1478 1570 1676 1581 1533 1511 1353 1300 1231 1203 1190 1191 1196 1214 1249 1319 1408 1465 1595 1668 1649 1682 1699 1776 1731 1699 1696 1748 1896 1950 1987 1876 1710 1521 1430 1401 1445 1519 1622 1781 1884 1766 1711 1679 1692 1724 1788 1854 1799 1732 1691 1694 1717 1740 1770 1811 1863 1865 1900 1873 1846 1828 1846 1950 2070 2051 1995 1977 1966 1966 1961 1956 1953 1951 1966 1986 2024 2098 2234 2434 2382 2581 2638 2579 2559 2529 2358 2353 2250 1992 1926 1942 1970 2023 2167 2275 2374 2417 2560 2711 2905 2798 2447 2201 2014 1829 1738 1694 1685 1681 1683 1685 1686 1687 1695 1719 1769 1854 2010 2142 2438 2601 2516 2558 2562 2422 2339 2206 2150 2132 2082 2057 2039 2008 2016 2036 2050 2069 2089 2110 2147 2275 2413 2565 2709 2582 2500 2381 2396 2476 2297 2107 2089 2174 2357 2520 2676 2754 2548 2449 2349 2273 2196 2134 2125 2053 1996 1974 1956 1932 1905 1895 1907 1918 1932 1952 1982 2006 2001 2014 2042 2065 2020 1970 1923 1922 1895 1871 1850 1869 1904 1952 1959 1927 1820 1821 1839 1858 1894 2025 2152 2250 2135 2167 2262 2366 2362 2347 2473 2469 2390 2359 2311 2264 2269 2194 2118 2063 2049 2038 2009 1968 1940 1936 1948 1939 1935 1929 1933 1947 1983 2036 2119 2247 2557 2931 2953 2723 2516 2302 2222 2150 2080 2029 1997 2006 2032 2069 2133 2256 2460 2449 2426 2300 2339 2471 2608 2302 2062 1925 1840 1794 1766 1741 1725 1725 1727 1774 2000 2370 2345 2243 2170 2143 2105 2079 2067 2049 1982 1929 1885 1902 1925 1879 1805 1748 1680 1617 1571 1542 1529 1521 1516 1513 1510 1513 1544 1609 1769 1876 1848 1855 1858 1897 1830 1788 1772 1781 1823 1813 1849 1918 1946 1940 1996 1938 1956 2059 1658 1457 1388 1370 1364 1375 1427 1550 1768 2252 2547 2370 2226 2073 1978 1883 1789 1722 1657 1594 1541 1498 1464 1443 1433 1425 1417 1417 1418 1413 1407 1400 1395 1392 1389 1387 1385 1386 1387 1389 1390 1394 1396 1394 1394 1394 1394 1395 1396 1393 1395 1397 1393 1393 1395 1396 1397 1398 1405 1434 1458 1540 1459 1439 1415 1409 1408 1410 1414 1421 1430 1441 1454 1462 1474 1490 1512 1536 1561 1591 1648 1699 1771 1894 2075 2128
469 624 869 861 703 494 404 420 423 257 273 215 390 191 83 68 64 63 52 43 40 37 35 31 28 26 22 19 17 15 12 11 10 11 12 13 13 16 14 11 10 10 10 10 11 11 11 12 12 13 13 14 15 16 17 16 16 17 17 19 19 20 21 23 24 26 29 34 35 39 50 70 85 104 104 136 139 193 243 309 324 373 408 449 485 567 583 550 645 635 574 645 621 610 681 742 749 673 599 630 621 870 1008 1096 1083 1095 1166 1248 1328 1372 1295 1255 1386 1204 1159 1346 1395 1505 1574 1702 1791 1725 1621 1669 1689 1695 1616 1673 1925 2057 1961 2069 2172 2148 2068 1931 2105 2314 2422 2421 2263 2126 2005 1898 1898 1898 1898 1898 1898 1898 1898 1898 1898 1898 1898 1996 2052 2200 2284 2100 2038 1881 1732 1719 1660 1544 1450 1439 1510 1546 1469 1700 1876 1882 1833 1926 1953 1903 1784 1825 1959 2048 2115 2317 2347 2156 1907 1951 1951 1766 1654 1555 1523 1562 1580 1553 1423 1335 1317 1317 1318 1318 1319 1319 1318 1318 1318 1318 1320 1330 1365 1341 1310 1299 1298 1298 1300 1306 1364 1380 1426 1546 1668 1667 1465 1433 1387 1410 1313 1237 1212 1202 1208 1219 1241 1281 1342 1411 1473 1531 1587 1666 1657 1671 1629 1650 1683 1675 1823 1993 2034 1994 1761 1550 1433 1430 1468 1539 1640 1833 1998 1780 1690 1677 1702 1730 1755 1770 1731 1684 1671 1705 1759 1784 1843 1852 1889 1873 1873 1903 1899 1810 1808 1912 2060 2036 1971 1958 1955 1955 1960 1954 1966 1987 2010 2042 2093 2185 2418 2641 2594 2481 2551 2527 2434 2498 2260 2112 2004 1938 1952 1981 2012 2080 2271 2392 2383 2494 2737 2943 3010 2547 2090 1833 1762 1712 1687 1677 1676 1676 1678 1682 1688 1696 1722 1756 1807 1924 2164 2402 2570 2618 2585 2544 2429 2319 2269 2276 2321 2209 2113 2079 2041 2015 2027 2036 2065 2078 2103 2132 2175 2265 2375 2444 2538 2528 2542 2495 2476 2367 2257 2151 2120 2216 2409 2642 2822 2668 2536 2445 2297 2238 2178 2120 2086 2032 1993 1970 1954 1930 1907 1911 1943 1968 2009 2072 2081 2090 2062 2070 2076 2123 2070 1972 1952 1953 1901 1843 1849 1926 1902 1889 1872 1845 1810 1811 1823 1841 1903 2016 2096 2145 2108 2165 2284 2531 2561 2414 2511 2544 2468 2352 2329 2397 2443 2228 2155 2106 2085 2055 2019 1977 1937 1913 1898 1898 1898 1897 1911 1935 1969 2023 2095 2192 2423 2701 3009 2764 2626 2375 2249 2155 2081 2026 2000 2002 2021 2057 2106 2177 2284 2427 2441 2280 2233 2195 2280 2135 1999 1910 1851 1814 1780 1752 1735 1735 1767 1826 2005 2347 2271 2232 2183 2127 2073 2014 1977 2011 1992 1931 1875 1821 1804 1787 1735 1689 1643 1603 1576 1553 1538 1527 1520 1517 1515 1517 1549 1614 1727 1743 1749 1826 1915 1903 1816 1761 1740 1746 1770 1788 1812 1848 1898 1969 2018 2012 2094 2111 1766 1509 1439 1407 1377 1367 1376 1428 1561 1973 2199 2178 2231 2143 1930 1851 1778 1685 1634 1577 1526 1484 1451 1429 1416 1405 1397 1396 1393 1391 1387 1385 1386 1387 1386 1384 1383 1384 1387 1393 1399 1455 1425 1408 1400 1395 1395 1395 1397 1397 1397 1397 1394 1395 1397 1398 1398 1400 1414 1437 1461 1503 1456 1442 1419 1412 1409 1409 1413 1419 1428 1438 1448 1459 1472 1489 1509 1533 1568 1606 1646 1716 1826 2041 2392 2422
456 615 887 964 727 516 408 403 403 348 337 226 293 234 124 91 88 92 79 56 47 44 41 35 30 27 23 20 18 15 12 11 10 11 10 11 12 12 15 11 10 10 10 10 10 10 12 11 11 12 12 13 14 15 15 15 15 16 17 18 19 19 20 21 22 24 27 32 32 36 49 53 84 137 123 135 178 210 265 289 345 396 374 410 468 504 507 534 612 546 584 638 655 638 715 737 561 638 821 820 839 909 1042 999 1109 1145 1158 1230 1310 1256 1135 1134 1307 1055 1292 1396 1498 1547 1673 1781 1700 1559 1639 1582 1739 1757 1836 1904 1914 1768 1773 1984 1975 1847 1887 2062 2145 2474 2335 2103 2065 2155 1974 1898 1898 1898 1898 1898 1898 1898 1898 1898 1898 1898 1899 1930 2064 2182 2239 2208 2034 1761 1742 1724 1576 1490 1470 1422 1427 1465 1515 1691 1954 1941 1863 1895 2025 2015 1906 1868 2044 2086 2111 2179 2048 1948 1823 1927 1813 1624 1628 1589 1596 1705 1700 1539 1419 1341 1319 1320 1320 1322 1322 1322 1321 1320 1320 1320 1320 1334 1402 1380 1339 1310 1303 1298 1292 1299 1322 1352 1382 1465 1537 1578 1513 1430 1444 1537 1453 1349 1266 1239 1232 1234 1246 1272 1310 1362 1403 1479 1509 1532 1534 1549 1568 1565 1597 1643 1761 1902 1973 2088 1776 1526 1447 1456 1491 1555 1660 1853 1888 1743 1706 1714 1739 1738 1722 1710 1675 1649 1691 1741 1762 1795 1851 1814 1826 1828 1823 1865 1845 1795 1753 1789 1896 1977 1963 1951 1951 1952 1952 1956 1964 1997 2043 2097 2154 2246 2485 2721 2581 2463 2346 2453 2297 2264 2095 2000 1962 1944 1973 2011 2063 2150 2371 2458 2635 2683 2764 2890 2675 2311 1919 1758 1704 1682 1674 1674 1675 1677 1679 1686 1705 1722 1750 1792 1842 1958 2149 2257 2432 2615 2642 2514 2525 2521 2515 2484 2388 2214 2153 2111 2057 2025 2039 2057 2064 2090 2111 2134 2172 2229 2315 2456 2561 2607 2657 2536 2543 2444 2305 2204 2173 2281 2469 2674 2820 2628 2517 2412 2267 2194 2153 2110 2071 2034 2006 1986 1970 1943 1918 1939 2052 2031 2104 2230 2194 2162 2147 2134 2119 2148 2074 2055 1989 1955 1882 1833 1841 1960 1896 1851 1832 1820 1799 1798 1813 1866 1954 2045 2098 2231 2129 2148 2276 2486 2718 2621 2643 2508 2457 2399 2408 2404 2343 2266 2192 2143 2096 2070 2029 1994 1944 1953 1913 1876 1875 1880 1916 1977 2011 1995 2035 2112 2224 2546 2822 3072 2750 2492 2277 2165 2082 2030 2006 2006 2025 2057 2098 2142 2209 2431 2623 2510 2353 2178 2089 2040 1957 1900 1855 1816 1783 1760 1744 1754 1821 1921 2096 2286 2374 2350 2241 2154 2073 2010 1942 1903 1875 1878 1829 1806 1767 1713 1684 1652 1624 1599 1579 1560 1544 1532 1526 1523 1521 1522 1535 1574 1622 1661 1728 1835 1891 1880 1796 1736 1709 1713 1743 1802 1816 1849 1913 2073 2095 2031 2001 1993 1810 1567 1500 1450 1397 1372 1369 1404 1502 1677 1872 1984 2057 2049 1957 1919 1766 1722 1607 1543 1504 1463 1430 1405 1396 1389 1384 1382 1380 1380 1382 1382 1381 1381 1382 1383 1383 1384 1394 1417 1460 1494 1449 1435 1409 1398 1397 1397 1398 1399 1400 1400 1398 1396 1399 1400 1401 1402 1411 1427 1439 1447 1455 1450 1432 1417 1410 1410 1412 1418 1426 1436 1447 1458 1470 1486 1505 1533 1579 1636 1681 1739 1828 1973 2226 2521
468 551 745 949 773 675 469 395 409 371 343 268 420 348 168 107 104 101 98 90 69 55 46 38 33 29 25 21 19 16 13 10 10 9 9 10 11 11 13 13 10 11 10 10 9 9 10 11 11 11 12 13 13 14 14 15 15 15 16 17 18 17 19 21 23 24 26 28 30 34 42 50 72 120 153 142 204 261 257 305 340 409 451 487 487 488 469 491 513 496 554 658 630 622 710 690 675 558 758 804 825 808 929 913 1035 1092 1106 1192 1259 1049 962 1158 1149 1001 1294 1429 1531 1612 1690 1737 1495 1653 1497 1752 1823 1859 1906 1761 1542 1459 1552 1504 1629 1956 2225 2323 2325 2462 2308 2113 2326 2261 2044 1900 1898 1898 1898 1898 1898 1898 1898 1898 1898 1898 1898 1908 2029 2165 2274 2433 2198 1701 1560 1565 1537 1464 1429 1415 1509 1521 1530 1662 1899 1931 1842 1861 2030 2175 2158 1966 1974 1987 2099 2171 2029 1877 1856 1702 1645 1710 1812 1672 1598 1634 1696 1574 1464 1362 1325 1322 1323 1324 1336 1338 1323 1323 1322 1322 1322 1323 1348 1399 1369 1337 1331 1314 1301 1291 1298 1324 1345 1384 1430 1485 1550 1476 1490 1576 1602 1545 1441 1335 1295 1272 1269 1279 1297 1325 1345 1384 1418 1441 1449 1472 1496 1524 1568 1621 1726 1790 1906 1936 1679 1547 1498 1511 1539 1572 1622 1690 1762 1776 1764 1759 1799 1794 1760 1703 1663 1635 1663 1698 1727 1787 1741 1781 1802 1789 1760 1779 1770 1743 1689 1711 1792 1933 1987 1954 1953 1951 1954 1960 1970 1990 2041 2130 2242 2328 2582 2586 2495 2512 2365 2167 2100 2056 2009 1975 1954 1974 1993 2036 2139 2268 2367 2568 2633 2753 2890 2534 2339 2149 1813 1707 1677 1672 1672 1673 1674 1681 1684 1695 1714 1743 1783 1828 1881 1946 2043 2207 2378 2601 2639 2653 2790 2714 2759 2528 2375 2253 2227 2110 2059 2035 2039 2069 2079 2097 2124 2162 2191 2280 2345 2439 2523 2614 2671 2622 2709 2722 2479 2283 2232 2309 2462 2689 2751 2626 2421 2356 2270 2168 2128 2105 2060 2033 2007 1983 1976 1947 1931 1973 2058 2111 2191 2304 2354 2283 2241 2180 2110 2071 2043 2028 1995 1905 1856 1816 1822 1935 1880 1836 1811 1807 1788 1801 1829 1867 1934 1959 2150 2156 2069 2130 2279 2473 2730 2733 2659 2487 2408 2458 2535 2558 2427 2286 2220 2155 2135 2096 2026 2002 1979 2058 1951 1871 1860 1901 1935 1929 1935 1943 1993 2039 2116 2447 2583 2861 2859 2570 2298 2174 2091 2039 2012 2010 2027 2056 2086 2125 2197 2331 2463 2557 2361 2200 2122 2141 1970 1875 1840 1802 1777 1761 1747 1758 1821 1934 2181 2316 2646 2482 2253 2182 2151 2109 2030 1955 1894 1836 1785 1750 1728 1689 1660 1637 1614 1595 1579 1563 1549 1538 1531 1528 1525 1525 1530 1557 1590 1629 1684 1756 1774 1837 1753 1703 1679 1681 1695 1744 1796 1805 1866 2004 1960 1891 1878 1875 1807 1648 1559 1500 1406 1375 1372 1400 1485 1628 1755 1908 1866 1825 1894 1860 1788 1689 1565 1499 1465 1434 1402 1385 1381 1379 1372 1372 1373 1381 1383 1383 1382 1381 1381 1382 1384 1390 1419 1465 1545 1509 1518 1518 1457 1401 1400 1400 1401 1402 1402 1403 1401 1399 1399 1401 1403 1404 1408 1422 1436 1452 1477 1479 1449 1425 1413 1410 1413 1418 1429 1449 1454 1461 1481 1500 1516 1546 1592 1653 1710 1769 1840 1940 2103 2299
512 570 721 808 690 652 592 426 446 404 466 363 486 457 257 144 137 141 160 133 86 69 52 43 42 37 31 25 21 17 14 11 9 8 7 9 10 9 11 12 13 12 11 10 9 9 9 10 11 11 11 12 13 13 13 14 14 15 15 16 16 16 19 21 23 24 26 28 31 33 39 52 82 102 114 111 147 196 270 343 349 378 412 468 491 457 450 435 460 517 564 591 586 678 697 653 668 554 631 771 628 646 729 861 931 1024 1111 1196 1182 906 911 801 965 1256 1327 1444 1459 1582 1675 1631 1423 1407 1569 1764 1682 1633 1679 1540 1512 1901 2112 1787 1611 1657 1888 2156 2255 2269 2367 2400 2485 2428 2156 1960 1928 1906 1898 1898 1898 1898 1898 1898 1898 1898 1898 1902 2122 2290 2509 2480 2181 1783 1563 1535 1536 1440 1418 1423 1563 1662 1566 1621 1735 1824 1794 1837 1921 2116 2152 2104 2091 2085 2205 2389 2303 1966 1812 1663 1698 1788 1862 1777 1684 1608 1609 1577 1576 1447 1380 1333 1326 1326 1335 1328 1325 1324 1324 1324 1324 1325 1332 1384 1454 1393 1398 1389 1364 1324 1296 1291 1313 1338 1375 1413 1452 1432 1449 1502 1601 1692 1677 1469 1370 1335 1330 1317 1315 1312 1326 1347 1384 1397 1419 1451 1488 1518 1556 1603 1659 1757 1888 1958 1770 1636 1594 1671 1652 1642 1647 1717 1803 1785 1736 1714 1796 1857 1805 1714 1677 1619 1625 1651 1668 1699 1691 1709 1718 1735 1709 1728 1724 1693 1644 1669 1751 1936 2050 1970 1964 1957 1956 1961 1972 1995 2033 2167 2397 2456 2658 2678 2512 2408 2173 2090 2051 2025 1999 1973 1967 2000 2032 2091 2242 2427 2404 2473 2495 2675 2871 2405 1995 1819 1733 1690 1673 1670 1672 1673 1674 1684 1693 1706 1727 1757 1803 1860 1918 1979 2076 2219 2426 2655 2717 2861 2960 2837 2629 2531 2457 2295 2185 2098 2059 2034 2045 2070 2098 2116 2129 2168 2222 2259 2343 2428 2485 2659 2685 2717 2693 2592 2550 2356 2348 2370 2469 2599 2682 2565 2399 2305 2238 2160 2115 2082 2049 2029 2015 2002 1994 1950 1947 1987 2067 2145 2194 2290 2415 2424 2324 2233 2151 2087 2074 2112 1981 1868 1836 1814 1791 1835 1823 1825 1812 1797 1787 1807 1835 1856 1885 1946 2015 2091 2064 2127 2257 2414 2592 2559 2526 2403 2393 2336 2469 2461 2370 2280 2170 2126 2128 2058 2031 1983 2053 2052 1935 1871 1842 1870 1903 1893 1878 1903 1938 1975 2059 2390 2580 2684 2917 2587 2314 2175 2094 2043 2017 2017 2029 2052 2082 2125 2180 2256 2339 2472 2474 2324 2224 2157 1919 1831 1809 1787 1771 1755 1748 1761 1838 1976 2303 2570 2872 2621 2478 2422 2427 2325 2188 2070 1984 1906 1836 1759 1702 1666 1643 1623 1608 1593 1578 1564 1552 1544 1537 1532 1529 1528 1528 1537 1557 1585 1627 1659 1699 1736 1700 1662 1650 1649 1650 1676 1760 1772 1832 1916 1982 1921 2000 2089 1999 1863 1701 1709 1459 1423 1396 1390 1397 1458 1593 1752 1737 1707 1733 1715 1726 1607 1528 1475 1438 1406 1383 1379 1379 1379 1373 1370 1375 1375 1377 1380 1379 1379 1381 1383 1400 1428 1488 1615 1626 1555 1627 1567 1470 1412 1403 1404 1404 1404 1403 1405 1405 1403 1402 1404 1409 1412 1416 1425 1435 1450 1472 1500 1468 1430 1422 1419 1416 1419 1438 1462 1457 1472 1510 1526 1538 1561 1605 1679 1738 1812 1910 2042 2309 2702
477 603 743 761 672 544 567 458 485 438 449 463 543 527 333 175 163 170 155 124 125 105 69 59 57 51 41 31 26 21 17 12 9 7 7 8 8 9 9 10 10 11 12 10 9 8 8 9 10 10 10 11 12 12 13 13 13 14 14 14 15 17 19 21 23 24 26 27 28 35 42 51 67 87 97 125 162 186 269 328 336 345 363 418 439 428 426 463 480 520 577 562 618 697 673 657 614 635 524 608 705 690 883 948 1043 1086 1073 1108 1125 854 857 697 988 1101 1128 1311 1422 1541 1649 1410 1304 1447 1558 1529 1519 1674 1570 1410 1738 2101 2183 2273 2030 1952 1762 1825 2030 2151 2267 2375 2401 2246 2101 2022 1972 1922 1898 1898 1898 1898 1898 1898 1898 1898 1898 1923 2245 2384 2548 2631 2466 2075 1622 1457 1426 1420 1421 1428 1469 1531 1553 1612 1659 1704 1728 1777 1847 2014 2045 2162 2341 2134 2182 2428 2288 1896 1733 1664 1706 1807 1908 1815 1673 1600 1612 1657 1618 1514 1428 1361 1330 1328 1329 1328 1328 1327 1327 1327 1327 1334 1356 1435 1516 1452 1459 1522 1495 1407 1337 1311 1291 1322 1366 1386 1424 1455 1439 1468 1526 1615 1597 1502 1433 1370 1419 1411 1399 1353 1330 1345 1372 1390 1421 1484 1543 1564 1576 1585 1630 1724 1844 1919 1944 1857 1744 1791 1706 1668 1715 1777 1805 1717 1655 1660 1747 1877 1816 1716 1657 1611 1591 1610 1615 1631 1635 1640 1655 1667 1677 1652 1634 1616 1602 1634 1726 1973 2040 1986 1994 1975 1960 1963 1979 2014 2078 2187 2304 2449 2671 2719 2493 2277 2140 2075 2036 2008 1985 1976 1993 2024 2072 2141 2248 2420 2502 2482 2603 2703 2453 2054 1861 1772 1711 1679 1666 1669 1669 1670 1673 1680 1700 1723 1751 1783 1822 1871 1947 2078 2098 2221 2416 2629 2791 2778 2848 2769 2695 2537 2380 2207 2137 2092 2055 2047 2057 2080 2095 2140 2156 2185 2232 2276 2355 2401 2474 2736 2671 2726 2527 2429 2516 2482 2404 2382 2449 2525 2586 2552 2367 2303 2258 2158 2118 2086 2057 2041 2020 2001 1985 1952 1958 1998 2045 2103 2191 2316 2441 2500 2477 2250 2206 2126 2093 2035 1916 1850 1813 1792 1773 1772 1792 1853 1884 1805 1774 1792 1809 1849 1877 1892 1963 2076 2180 2161 2206 2268 2371 2387 2393 2336 2279 2242 2355 2301 2238 2191 2115 2079 2097 2047 2022 2003 2084 2048 1910 1862 1832 1858 1862 1849 1854 1876 1902 1946 2093 2500 2798 2851 2897 2622 2303 2170 2095 2049 2024 2024 2035 2054 2080 2119 2169 2229 2400 2435 2387 2251 2241 2091 1897 1832 1801 1783 1768 1756 1753 1777 1847 2012 2311 2518 2670 2857 2835 2640 2589 2636 2453 2257 2110 2007 1896 1785 1713 1657 1627 1611 1598 1586 1575 1564 1554 1546 1540 1536 1535 1534 1532 1532 1534 1548 1575 1604 1630 1647 1631 1620 1621 1619 1616 1650 1728 1747 1853 2020 1985 2092 2143 2242 2157 2068 2079 2111 1801 1569 1493 1442 1401 1415 1466 1570 1662 1641 1623 1611 1603 1556 1502 1460 1425 1394 1379 1381 1379 1377 1372 1371 1371 1372 1377 1376 1373 1377 1384 1403 1442 1499 1601 1774 1616 1610 1686 1570 1482 1441 1415 1409 1408 1407 1409 1410 1410 1409 1406 1407 1409 1411 1418 1427 1435 1440 1463 1477 1445 1435 1428 1422 1418 1422 1431 1446 1456 1487 1550 1568 1561 1589 1630 1694 1795 1873 2031 2309 2533 2664
